ply
format ascii 1.0
element vertex 690
property double x
property double y
property double z
property uchar red
property uchar green
property uchar blue
end_header
-0.8266081408903357 -1.0786965469177556 0.5581695012092718 114 143 157
-0.8188839685030030 -1.0416630846809722 0.5447020839255499 25 49 85
-0.8266081408903357 -1.0786965469177556 0.5581695012092718 114 143 157
-1.8492902871767187 2.4796643216092855 1.9696506804264962 30 37 21
-0.8293311556817742 -1.0605003627597465 0.5527523357237125 12 36 64
-0.3313531627351856 0.3554673947113540 -0.0527587105288831 198 193 189
-0.6969174479611898 -1.1028379326726945 0.5313635112539479 23 41 79
-0.3829571432097090 0.3644389334388252 -0.1097134506528173 24 58 95
-0.8128493525840964 -1.1298289265303625 0.5694658652593557 16 47 65
-0.2575721848435699 0.3465915352309805 0.0171844984879176 195 195 195
-0.8128493525840964 -1.1298289265303625 0.5694658652593557 16 47 65
-0.3660249048689867 0.3502479946017274 -0.0486869739910225 202 197 194
-0.8336493069373314 -1.1326325286465388 0.5722042961338455 119 148 164
-0.8102502524336657 -1.0345457549282053 0.5411123338669952 12 44 69
-0.8336493069373314 -1.1326325286465388 0.5722042961338455 119 148 164
-0.3429372296201658 0.3655243123604624 -0.0873391794907683 193 192 188
-0.8195942170616575 -1.1892449898782371 0.5867425589776946 23 51 73
-0.8298307857933063 -1.1877843261566610 0.5906681805403550 27 55 79
-0.8465609314801232 -1.2270006553222599 0.6085584205349660 2 29 46
-0.3677985106348883 0.3525308892819596 -0.0606588873252738 198 193 190
-0.8465609314801232 -1.2270006553222599 0.6085584205349660 2 29 46
-0.2727488918569937 0.3373797401276515 0.0384347896940185 24 45 66
-0.2398950105073896 -1.2357598453699181 0.4551801971206215 1 24 40
-1.6683909959970618 2.8277748575996764 5.0516032842401675 129 130 122
-0.8502372629791602 -1.2303174147016125 0.6086552802495211 115 148 163
-1.4131898085959835 1.3748144022176649 5.6952533847565423 69 69 69
-0.2418161629559663 0.3490704515969877 0.0069032771012875 22 56 93
-0.2675593105754906 0.3583348095641735 -0.0267525857644468 29 55 80
-0.4561983030542467 -1.2945531497808860 0.5183276670451936 19 41 65
-0.3294858458667717 -1.1030886760045548 0.4710377632745230 119 138 145
-1.6461501622972605 2.4737770530387673 5.5535903204597670 208 212 215
-0.4114591016006989 0.3537914791468253 -0.0828736438110469 23 57 95
-0.2279571920177548 -1.1901666957547887 0.4861962351893882 107 135 146
-0.5141880441461127 -1.2482644472169626 0.5272082725500710 21 45 73
-0.6219286981271135 -1.0769429813936231 0.5083207977591699 20 50 84
-0.4704752929500738 -1.3335715120703131 0.5396430639361304 109 135 148
-0.3692825700113198 0.3604882129692187 -0.0876168401416714 216 216 224
-0.6193182755925078 -1.0529553980122570 0.4941322721223863 94 110 123
-0.6186870343754149 -1.0561675402026598 0.5026245979459526 112 137 144
-0.2688802284398207 0.3458802567204243 0.0166436342917710 23 57 94
-0.7797603610777883 -1.0882193706919498 0.5498870389045282 32 54 78
-0.3364185696416772 0.3475012650165745 -0.0211953758028650 204 204 202
-0.4199950630912659 0.3576347152007459 -0.1051898738163664 210 206 205
-0.2761806687732207 0.3593422982030627 -0.0341356550360491 214 214 216
-0.4144514564619317 0.3497684651182783 -0.0760203602180241 200 198 199
-0.2120024366114341 -1.1498345481470122 0.4548079814053587 110 126 126
-0.8210743765127902 -1.1379003418364053 0.5730770980340465 20 53 86
-0.6627056554057934 -1.0030301704286264 0.5005340630436000 21 47 70
-0.3731694172002639 -1.1922688384064126 0.5002172814022537 124 130 130
-1.3052280186012797 1.2442369577745875 5.7630261248048926 121 117 108
-0.3916240269496163 0.3596460732391804 -0.0948632658106387 26 58 96
-0.5029557367936059 -1.0867974149605639 0.4829260122370861 117 147 158
-0.4562169790313950 -1.3031055976640118 0.5101581079643297 19 41 65
-0.4985110830437293 -1.0426672180289558 0.4657999857603420 33 56 74
-0.6269989176386163 -1.1440302567283582 0.5125450242881766 130 162 175
-0.8267597453929367 -1.1940454196906718 0.5871724085475123 105 134 142
-0.8439009265947873 -1.1951274169491468 0.5941091044637722 27 54 81
-0.3249856939282371 0.3478969311116142 -0.0199545574596786 203 196 190
-0.8379427914271783 -1.1726762651525833 0.5854322616161004 117 145 167
-0.8439009265947873 -1.1951274169491468 0.5941091044637722 27 54 81
-0.2560019525337640 0.3436425295628892 0.0269689426975454 191 196 190
-0.4560788846683341 -1.3042593575261989 0.5285547923484137 30 58 79
-0.8364862293463556 -1.1345540266029059 0.5764958640116157 6 37 65
-0.6458204462512661 -1.0050116318974815 0.4951343331874436 9 35 70
-0.4576286635109994 -1.2535537143467075 0.5160303300582399 125 152 161
-0.4684624641241048 -1.2975626993044247 0.5264583152599295 115 140 147
-0.2845043030855622 0.3518788912600728 -0.0166614640206633 54 70 95
-0.3817422393032988 0.3625682708666014 -0.0948896773474537 23 57 95
-0.7739740912332138 -1.1350110276143142 0.5572576775671768 121 154 169
-1.8471273554593766 2.4771637893056218 1.9838137730749736 24 32 19
-0.7651449028743724 -1.0486637119436197 0.5477144828496185 20 51 82
-0.4684971304468506 -1.2976474878358286 0.5265047494625170 115 140 147
-0.4770460094362590 -1.2978339327690938 0.5247238126935994 111 139 150
-0.2368057968478655 0.3533138386820822 -0.0013740074824738 193 192 190
-0.3359259276708097 0.3537812739395347 -0.0492102916345445 200 195 199
-0.7027679745309375 -0.9930403793775331 0.5041052316573870 21 49 86
-0.4772325193432067 -1.2975738231354981 0.5248775143457114 111 139 150
-0.3277645607522843 0.3423220986148107 -0.0046397062725721 208 208 208
-0.7914375341529124 -1.0427181398190184 0.5424483956762258 108 144 156
-0.3664447490683403 0.3505350673080497 -0.0525144059541376 201 197 194
-0.2858487604947462 0.3484571583760316 -0.0018053304435946 205 197 194
-0.3585326153738493 0.3485708402185813 -0.0398694345430272 28 57 97
-0.2506694758044033 0.3487667315459528 0.0141155251118265 40 57 85
-0.2857041085511356 0.3434614393819811 0.0157901545793585 199 199 201
-0.4077667046723348 0.3642071522557349 -0.1168311224770778 23 57 94
-0.7442862767230561 -1.1081513950974407 0.5425394893756237 116 152 166
-0.5656947499813795 -1.0644390922907152 0.4986022165499358 114 131 138
-0.8301765937901262 -1.1877454570823944 0.5899244986571602 27 55 79
-0.5201691383274508 -1.1693046324262435 0.5083700505961620 115 145 156
-0.4644348514771926 -1.3143849482349972 0.5274919964748717 3 29 44
-0.2574322334990842 0.3572573308039267 -0.0181019093410880 200 199 194
-0.7599900114328474 -1.0257317337932297 0.5398528251513313 0 20 45
-0.2764067835756059 -1.1796776436341840 0.4498101788884920 4 30 53
-0.3240312693944891 0.3471464605759025 -0.0150415611459183 197 192 188
-0.4810285989384620 -1.2908188798637195 0.5062628588691398 28 53 75
-0.2647064104235077 0.3514402168177109 -0.0111063837489330 172 177 180
-0.4414860440342276 -1.1221098512080971 0.4889081181642952 89 118 136
-0.5171398993121380 -1.0999856550434814 0.4903911199186337 32 52 76
-0.2631525991343313 0.3565601235253570 -0.0174933293104097 54 62 85
-0.8194660565888801 -1.0356194235325018 0.5401152013525417 1 25 51
-0.8287044841551391 -1.0974197108815253 0.5661677711668300 121 153 168
-0.2924795963844089 0.3504020074140037 -0.0132795175128935 197 196 192
-0.8072353400794903 -1.0220948632941138 0.5373594244068428 23 47 83
-0.8019638429504689 -1.0231172662283907 0.5363552196978014 27 55 76
-0.5477870545857042 -1.0613656251947059 0.4805899290755200 27 47 80
-0.7141526751604318 -1.0540250845154495 0.5231423343172483 112 145 154
-0.8281017326905549 -1.1365648912598949 0.5753098105896117 106 134 158
-0.2778906401825829 0.3465686677166618 0.0083273409676067 30 55 95
-0.3999942584472669 -1.2433564724538775 0.5004225327552297 23 49 74
-0.5965826545729390 -1.0590426552202978 0.4980644800767121 24 45 74
-0.5965826545729390 -1.0590426552202978 0.4980644800767121 24 45 74
-0.5292610040203988 -1.3375480551953394 0.5543365789905313 106 138 149
-0.6014685868318874 -1.0810327336398546 0.5051920406579145 28 54 89
-1.2952656064851924 2.4419766195202208 5.5910574653645009 137 137 135
-0.2726309420213214 0.3421508809647500 0.0229560005824870 193 191 194
-0.8266216860777045 -1.1542303232147046 0.5794631745786768 115 138 154
-0.8140641566633360 -1.0372101925127077 0.5425364552631683 111 133 157
-0.2209585492034261 -1.1253641418451383 0.4401372954070514 114 120 118
-0.8359615946690367 -1.1265271397057053 0.5720017716193657 15 41 74
-0.8140126858584358 -1.0370298341354263 0.5429105861823423 111 133 157
-0.5322872998298794 -1.2551439237830293 0.5334297142437620 27 47 71
-0.3309065133071329 0.3477824271349287 -0.0196884937934757 208 208 208
-0.4559802921526416 -1.1129337924172982 0.4809595253493621 136 157 176
-0.4478242136523939 -1.0565833479859759 0.4613954095041880 124 153 161
-1.6483299634061070 2.4320344682974420 5.6141473777844189 202 201 199
-0.6665968608691736 -1.1208191896036379 0.5291326468989997 121 155 167
-0.5312306193710248 -1.0751325146335975 0.4881507035225134 125 159 171
-0.5240216595824084 -1.3060588563198376 0.5458158489808960 101 131 139
-0.7157061286424410 -1.0913120396939200 0.5336939427975368 14 40 73
-0.2494694888912799 -1.1150747208366794 0.4427823122575786 115 144 160
-2.0268240406271962 -1.1190281601758698 0.8926653089861314 141 149 151
-0.4691510781079710 -1.2809478918734583 0.4999139994704206 117 149 160
-0.7626343057214712 -0.9929277930410791 0.5208660357989816 34 58 84
-0.8205889820279448 -1.1882038447304180 0.5988708561572035 96 123 134
-0.8376898930610894 -1.1857978364860251 0.5882960079845293 108 140 153
-0.8315950989049996 -1.1955601187262661 0.5918871980571281 21 51 85
-0.4044104197719358 -1.1126487781899355 0.4696583964955038 26 48 87
-0.4412197197676643 -1.1733388528153741 0.5088007879153847 99 131 152
-0.4719194233516350 -1.3119889419447206 0.5290551368161920 116 141 148
-0.4722561993643377 -1.3119998296523181 0.5294907765397835 102 136 148
-0.2664036284699723 0.3493935946814020 0.0055966556394127 211 215 218
-0.7621137813268689 -1.1199148369701739 0.5529954807017725 20 49 81
-0.4653525498384697 -1.3175376575678330 0.5331653839130501 18 38 62
-0.8026730781666971 -1.1241385974031124 0.5605910021714733 118 154 168
-0.2831163282729233 0.3475649916727348 0.0043946700138937 39 57 81
-0.2379471276519418 -1.2044764645102533 0.4546049880865924 33 54 75
-0.4542938495574566 -1.0741239792737303 0.4711252042590336 127 147 156
-0.3593137572583150 0.3573275119853194 -0.0745595392499513 201 199 204
-0.5078342506085056 -1.1764443781901175 0.5073416247193476 33 60 77
-0.5498304029800291 -1.1214732076813954 0.5029657258228811 19 47 71
-0.2109939653441506 -1.1360833610590633 0.4366549260044640 102 130 141
-0.5068856328734461 -1.1548447651475646 0.5022558070107725 25 47 68
-1.4299645770757050 2.4155687389863916 5.6307719466442805 50 46 34
-0.4058445760647748 -1.2319715793911796 0.4990585200051326 116 146 157
-0.5206869690969514 -1.1325391024875511 0.4991802916824253 28 47 61
-0.3672630811702471 0.3517055556335371 -0.0561793451671504 176 183 193
-0.3999942584472670 -1.2433564724538773 0.5004225327552304 23 49 74
-0.7853726013834936 -1.0041694838091539 0.5257398346730808 113 149 161
-1.6391922066497855 2.9328539885970333 5.0883102689216271 35 37 34
-0.2918151779914650 0.3585221934091355 -0.0371654839260578 208 204 203
-1.7868714285778073 3.1276749324877184 5.2248768481240857 176 200 224
-0.2153046276531578 -1.1315804934894398 0.4291632007395566 34 57 75
-0.8267597453929370 -1.1940454196906718 0.5871724085475118 105 134 142
-0.2248775233794469 -1.3433795000962505 0.4945766966055969 28 50 73
-1.4746618438654304 2.8934478621171933 4.9353726660808634 75 72 67
-0.4741068297244106 -1.2577103988742835 0.5203779362760395 26 49 65
-0.8231299787337248 -1.0939848136300401 0.5614880357352365 0 11 45
-0.7102177264962646 -1.1281690379060374 0.5404540811600635 29 55 88
-0.8019638429504689 -1.0231172662283907 0.5363552196978014 27 55 76
-0.8140004267719797 -1.0371148461066790 0.5426184340820084 111 133 157
-0.5029557367936059 -1.0867974149605639 0.4829260122370861 117 147 158
-0.4512764481024383 -1.0866486996366924 0.4810832639239453 32 44 66
-0.5388349408613803 -1.3446260865680424 0.5566638637546515 25 51 74
-0.2964004770835051 0.3576898157042500 -0.0380188731540012 30 56 89
-0.4193526283757119 0.3571035406758031 -0.0998121403372974 196 195 193
-0.5201691383274508 -1.1693046324262435 0.5083700505961620 115 145 156
-0.2526726568659280 0.3522062208420664 -0.0037844818295212 199 198 194
-0.2690719795657959 0.3564166331339574 -0.0200278749150204 199 201 200
-0.3946941227482837 -1.1481491130806107 0.4746822141612223 119 147 158
-0.4901897458344586 -1.0263044171587856 0.4639769320272812 28 51 82
-0.4415089630832637 -1.1216271055342126 0.4896978124994883 120 135 132
-0.2897688544490792 0.3475306667909228 0.0027971696863824 197 196 194
-0.7048871215959146 -1.0093755261310990 0.5112976758086777 27 54 84
-0.7429430360424064 -1.0630460228245611 0.5302647442986258 120 156 170
-0.8109252665122197 -1.0642000290504459 0.5509608514751164 18 51 92
-0.5041851217267057 -1.1342942250129386 0.4959776689110504 30 55 77
-0.8210819651431324 -1.1980418412717111 0.5913103384545163 26 52 87
-0.6602860379003405 -1.0497038506731349 0.5104657895846106 140 166 181
-0.4708750294045319 -1.0480309013487916 0.4682080770752588 126 156 164
-1.4125010628796368 2.3234477015849584 5.7057082108096546 61 57 48
-0.3620767978813235 0.3489365507120388 -0.0410571875307103 207 201 203
-0.4897937757822895 -1.0705874296678644 0.4788737557620951 28 47 77
-1.5440567593305223 2.8803110087553172 4.9516863738206656 66 65 60
-1.7558238736006593 2.4464295921538564 5.5730348783750303 54 53 51
-0.5341203385376442 -1.3258953883457778 0.5526837506421701 114 140 155
-0.7695559759679538 -1.0302807148855890 0.5328650561244739 116 143 154
-0.7500528358436498 -0.9828247221424093 0.5153673335862233 19 45 80
-1.8289484428694400 2.4915488244595232 1.9784289572282392 69 70 56
-0.5214485595575387 -1.1434332495157489 0.5019712638690443 34 55 74
-0.2672190388467305 0.3365980761121394 0.0427478172351709 31 45 72
-0.4591476841815968 -1.0773275204375758 0.4734127235508510 41 56 79
-0.2713212289362597 0.3360991552886812 0.0430430893428244 29 47 71
-0.2343145250193897 -1.2586749358655436 0.4762926077615117 24 40 66
-1.3900280658947060 2.8915791821248642 4.9161196333885400 52 53 55
-1.5112802023172478 2.8515058202628554 4.9861327707603040 43 43 35
-0.5872973901511278 -1.0962999987360087 0.5060873068305309 118 148 158
-1.4938738119855468 2.8831092594775165 4.9512649131901654 200 202 197
-0.2343558387437216 0.3509107911999547 0.0042688169996369 177 185 188
-0.6934664080842904 -1.1155388817708602 0.5328272361041410 119 155 167
-0.4041008459193332 -1.2794102066126776 0.5115296939617132 21 49 86
-1.5076679187350612 2.8851212802005910 4.9452897290844842 76 73 68
-0.2506694758044033 0.3487667315459528 0.0141155251118265 40 57 85
-2.0103966029111033 -1.0973131917461678 0.9189594478452933 27 31 32
-0.7570692597725428 -1.0320454406584336 0.5300754897183159 128 154 167
-1.5201296292720776 2.8642755400373403 4.9707755726996066 55 52 47
-0.2730595549805739 0.3414764214293317 0.0254166275115948 31 48 78
-0.8049096874966378 -1.0536346261476768 0.5463623054908482 15 42 61
-0.5312714032759610 -1.2445368364388389 0.5310230344577930 25 47 71
-0.7347999914871465 -1.0132162463119658 0.5166401587213674 118 152 164
-0.7575677639205859 -1.0551377105491551 0.5386816366417629 21 40 73
-0.3372720516012417 0.3535259271475600 -0.0543226450167728 26 52 87
-0.4424381275367681 -1.2752699062936810 0.5201647553711893 118 150 163
-1.5617956811476055 2.7901847480136430 5.1163111824036323 197 199 196
-0.3780866143688018 -1.0913480861958760 0.4625630627025895 109 119 120
-0.2560019525337640 0.3436425295628892 0.0269689426975454 191 196 190
-0.3377508183960495 -1.1847330269330534 0.4688164007722201 132 154 165
-0.4949253316337263 -1.0202862255750627 0.4639069639044731 130 154 164
-0.8313156666778975 -1.0821064985057944 0.5598858538430954 9 32 66
-0.8144140219849120 -1.0856914071082455 0.5584948889829133 22 52 78
-0.2466513605581334 0.3480167929510130 0.0200378034077295 167 172 175
-0.2040430043012096 -1.1324255180610017 0.4351559139299763 23 50 67
-0.4754285799151513 -1.2346504325479475 0.5129852587237661 19 38 71
-0.2104346567002828 -1.1259942624423795 0.4382950089954211 115 144 158
-0.4180479099718735 -1.2402199076831291 0.5040512276533344 30 56 91
-0.2298970946741103 -1.1254161209291820 0.4431749365665378 3 29 46
-0.3341260808349119 0.3489166873373383 -0.0266369071000403 179 181 176
-0.4100626466519129 0.3570357200285040 -0.1020218753391781 180 183 188
-0.3382070344178166 -1.1244468198053688 0.4575290951949452 117 141 153
-0.4115107717606298 -1.3155444118051836 0.5223512124123830 38 62 106
-0.8279059167140238 -1.1003197016995327 0.5651943009977607 121 151 161
-0.3959943107096704 -1.1185261145536352 0.4781581569958370 28 38 65
-0.8297988863017562 -1.0729436191752320 0.5571534546292644 22 44 83
-0.4188337972556153 -1.2489129250577853 0.5062243338098745 21 50 80
-0.2967803952879830 0.3550100584975901 -0.0295799528896407 202 197 194
-0.5294701820776230 -1.2720615756958149 0.5380907096725540 116 142 159
-0.3946733658558010 -1.1493608252185055 0.4892243961460489 31 41 68
-0.3253165592313735 0.3480586544612961 -0.0197089895678434 182 183 188
-0.6912638779242214 -1.0007013213068108 0.5063193446208786 27 55 77
-0.5026754994733140 -1.1241429258503337 0.4947616604381385 25 51 76
-1.5839556723789947 2.8347062145369244 5.0485431657801527 222 222 220
-0.6458204462512661 -1.0050116318974815 0.4951343331874436 9 35 70
-0.3923419941813878 -1.1267376398832092 0.4683311701135705 115 145 155
-0.8031378042447027 -1.1960234854031102 0.5852674556819162 20 38 74
-0.2695572393972611 0.3572805149631559 -0.0242908312903474 199 195 192
-0.6665447266800149 -1.1207930601219818 0.5285303777552341 121 155 167
-0.3872029363018999 -1.1518274616861996 0.4734204887532515 122 149 160
-1.5709227467487652 2.8630555824493884 4.9787279111165637 212 214 213
-0.4589480501958455 -1.3081930944708660 0.5135002843411771 126 156 166
-0.3354398380451277 -1.0429936085776339 0.4469138093040070 34 49 70
-1.4782288122470408 2.8830126301463412 4.9491528212949918 80 81 75
-0.4144514564619317 0.3497684651182783 -0.0760203602180241 200 198 199
-0.2868504951242348 -1.1120711519401707 0.4407521851206581 29 46 64
-0.3948746114271319 0.3563787778326119 -0.0884833438408306 191 190 195
-0.2780417192252013 0.3468563857246783 0.0083960799725049 30 55 95
-0.6312297181581383 -1.1390031021424596 0.5085426514171745 43 69 96
-0.5256036498776395 -1.1870557578293817 0.5142259034608511 20 41 58
-0.3831368452826910 -1.0446543101226144 0.4441847348369055 30 47 77
-0.3418159565424201 0.3537426956470562 -0.0506651568072962 210 199 197
-0.5999044433702077 -1.0040904038321583 0.4862641711452713 9 33 67
-0.2584862479838106 0.3480419071738811 0.0147516402232391 41 55 81
-0.7571686142200191 -1.0099315959309960 0.5218204934094186 117 151 163
-0.3444081583183219 0.3563385712579153 -0.0628818760688063 198 193 190
-1.6558408407500838 2.5136730745816789 5.5064708837918577 59 66 72
-0.2713212289362597 0.3360991552886812 0.0430430893428244 29 47 71
-0.8087232663286492 -1.0016811635195015 0.5323674444508039 111 147 159
-0.3581164457288119 0.3504713688098136 -0.0493373902501395 202 195 189
-0.3650978315308230 0.3591307458078939 -0.0839552161345969 207 203 204
-0.6483531194840932 -1.0476964978233234 0.5071519591125039 23 48 79
-0.3726150067917064 0.3586154795706920 -0.0828625585870276 206 201 198
-0.3531368006803455 0.3422410709601960 -0.0188389998200670 31 49 69
-0.6567481738307416 -1.1122484507757753 0.5245856696632877 10 38 52
-0.5256036498776395 -1.1870557578293817 0.5142259034608511 20 41 58
-0.4552397540806208 -1.1781220071604244 0.4951876160086115 121 140 154
-0.5078342506085056 -1.1764443781901175 0.5073416247193476 33 60 77
-0.3573507654483423 0.3415576016465150 -0.0183309587130994 46 63 83
-0.2985198871148461 -1.2091403726122190 0.4691018307876852 30 48 72
-1.5922942611273434 2.8061611417735191 5.0910155161186958 209 208 206
-1.6180446392491499 2.8299499384329581 5.0490238006259096 150 159 168
-0.5165133837366753 -1.2202403702507707 0.5203361710970310 123 146 162
-1.5839556723789947 2.8347062145369244 5.0485431657801527 222 222 220
-0.4943460445973365 -1.0110261991973510 0.4690051096808273 30 56 81
-0.4199950630912659 0.3576347152007459 -0.1051898738163664 210 206 205
-0.8352984530687869 -1.1526756581248001 0.5800140753699941 113 144 164
-0.5202239934036116 -1.3393945513670835 0.5524168603919849 122 152 163
-1.7107019532723253 2.9831016692611922 5.1718533780121270 40 45 48
-0.4591186258306153 -1.3635379901013833 0.5449470271870593 24 54 82
-0.2498089015837485 0.3428526060769417 0.0307038785060428 25 58 93
-0.4688548840076116 -1.2333739306309945 0.5166441617118854 16 41 72
-1.5847021774466121 2.8539763210108582 4.9896375969718934 68 72 73
-0.2864994852473964 -1.0930880299771486 0.4489059671322384 32 47 68
-0.2273976502844749 -1.1575868513535903 0.4396484288440892 116 142 155
-1.5709227467487652 2.8630555824493884 4.9787279111165637 212 214 213
-0.4674313044303303 -1.2919675751016213 0.5272247051957584 12 34 55
-0.7985723067804293 -0.9736339629019672 0.5281671175445601 99 126 143
-1.5380626055057627 2.8609608341290271 4.9750452981687348 208 208 200
-0.3966999399849582 -1.0321673967677241 0.4572020282796634 22 40 64
-0.3916240269496163 0.3596460732391804 -0.0948632658106387 26 58 96
-0.8263765952177912 -1.0223854085028696 0.5362241955386566 18 43 74
-1.5642397800275649 2.8878277265144532 4.9449320454363850 223 224 216
-0.2605954834476993 0.3234215424916630 0.0800404904748734 182 178 175
-0.2152555646226691 -1.2301402382760012 0.4666322610851137 32 49 75
-1.4746618438654304 2.8934478621171933 4.9353726660808634 75 72 67
-0.6419582042056386 -1.0798164379578445 0.5122593417172435 118 151 160
-0.5232435470365286 -1.0412990160490891 0.4802047362557040 123 153 163
-0.2334844617802742 0.3501842446972067 0.0132850882071558 201 196 192
-2.0271537462114120 -1.1030750839909862 0.8735714827993770 36 40 43
-0.2761806687732207 0.3593422982030627 -0.0341356550360491 214 214 216
-0.4704752929500738 -1.3335715120703131 0.5396430639361304 109 135 148
-0.7669373452754736 -1.0285171633553845 0.5403364015138808 116 143 154
-0.2765352152285704 0.3341427100128908 0.0456647276442327 194 193 191
-0.7629874158646158 -1.0340913789267450 0.5319514943433467 20 41 68
-0.4442168015671372 -1.0904811223339477 0.4800226641141161 115 127 125
-0.2802475805713879 0.3393220038554776 0.0287370771739493 200 194 196
-0.2224551728802630 -1.1129730335078294 0.4332675981250607 102 129 140
-0.6501183265429837 -0.9921484157552353 0.4956976920934841 14 41 70
-0.6017722229569029 -1.0345231357616722 0.4912431778397367 119 153 163
-0.2760039260888841 -1.1030402094908800 0.4420449643234460 111 135 139
-0.5077984584004095 -1.1833158366787975 0.5088595491991891 114 145 150
-0.2033438630875872 -1.1197698863369436 0.4328049951181558 11 36 67
-0.7127313540270722 -1.0401649125462826 0.5196073729024704 122 146 170
-1.8757724713354658 -0.9710500252600851 0.8125301829234692 17 43 68
-0.3958797507912457 -1.1113532787789233 0.4741150721187092 106 115 114
-0.3848018972849093 -1.1311738882787572 0.4670469986751903 129 155 168
-0.2245015586394578 -1.1342043020074337 0.4386353536378568 110 138 150
-0.5154184543203322 -1.2571530681899732 0.5307748803631555 27 50 81
-0.2245015586394578 -1.1342043020074337 0.4386353536378568 110 138 150
-0.2909148826707235 0.3545850534420035 -0.0248269668510794 28 52 86
-0.8273902080351911 -1.1005995412894263 0.5664565363162603 121 151 161
-0.8136990445347616 -1.1024009497080469 0.5635124789559245 117 146 160
-2.0139695679900962 -1.0582277915975222 0.8888865561331885 131 139 141
-0.4547502713962792 -1.0275689003970239 0.4649255305123980 28 46 68
-0.2771010050538983 0.3439108313196061 0.0151211416296936 193 194 189
-1.8480426194136896 -0.8714367095848453 0.7890577397495875 6 33 60
-0.3792619960778915 -1.1892860608598932 0.4979213049078820 32 38 70
-0.4086529269899648 0.3566782906565331 -0.0895727089553849 203 198 194
-0.2537106586125772 0.3479950511104130 0.0147026942632229 211 212 216
-0.4424929707982422 -1.2752532948193174 0.5201797086734746 118 150 163
-1.7045959901008287 2.4543143358268877 5.5788928440498857 69 70 72
-0.2842978957667651 0.3520441243694493 -0.0162323325783640 40 52 74
-0.2631525991343313 0.3565601235253570 -0.0174933293104097 54 62 85
-0.4678947538158915 -1.2916987583639419 0.5283441780793172 18 42 66
-1.6423877984339381 2.9151610937738011 5.1010582196306720 40 41 36
-0.6267284227032592 -1.0284158200488860 0.4942629246118830 118 152 162
-1.7585488480215801 3.0503486882167885 5.2063864747020538 69 80 86
-0.7432931450668485 -1.0628164617204741 0.5296919060473764 129 165 179
-1.7571561008391761 3.1178751023341555 5.2164536113254991 76 81 84
-0.5124742508297200 -1.0978177003720648 0.4995825064009640 122 131 148
-2.0271537462114120 -1.1030750839909862 0.8735714827993770 36 40 43
-1.6682451241930987 3.0088135260333622 5.0986102064268266 27 31 42
-0.3692825700113198 0.3604882129692187 -0.0876168401416714 216 216 224
-0.7088447159256105 -1.0380103421764761 0.5193187335807465 13 40 67
-0.2581635805998573 0.3520553702114351 -0.0069541495946783 27 35 48
-1.5965873534095427 3.0519445687574396 5.0340289321215259 162 168 166
-0.3308559602454212 0.3478371407491067 -0.0197993951850496 208 208 208
-0.4114591016006989 0.3537914791468253 -0.0828736438110469 23 57 95
-0.4218964106400900 -1.0587919292040877 0.4589170742585839 124 153 161
-0.3542524567751290 0.3503465824145419 -0.0458998555711169 210 206 205
-0.3712582611077009 -1.1342835121422716 0.4771243304852987 28 39 71
-0.2508130405419381 0.3517213705627047 0.0040186233686635 207 208 213
-0.8075581861593658 -1.0589350207620871 0.5481605004614494 118 147 161
-0.2986872841982398 0.3565118512966796 -0.0374003874509412 216 210 212
-0.8288844578146751 -1.0506963129112807 0.5484793396795850 20 44 80
-0.3552409904083706 0.3523533295034748 -0.0541567740965127 212 208 205
-1.7667194670650999 2.5018043514089405 2.0097473946546067 0 7 0
-0.6539487171085947 -1.0325945789986859 0.5028676141118732 117 151 161
-1.7425661481552444 2.9684150907241040 5.2286562079781111 169 188 202
-1.6735418172621452 2.8835175164966920 5.1491981746210769 57 54 61
-0.5559928040447872 -1.0704097338636638 0.4929296619861089 118 148 159
-0.3627555299088068 0.3517230624533599 -0.0581014677362567 45 53 66
-0.2372027435966530 -1.3384939433299521 0.4854568241001053 27 42 71
-1.7369765721086998 3.0609709295002916 5.1920194214205075 162 176 189
-0.6575970018892283 -1.1118158955315065 0.5251381169597183 10 38 52
-0.2834916750467456 0.3479901733675829 0.0047041094224260 45 55 67
-0.6026149076885993 -1.1124635100032145 0.5115059662703630 24 47 79
-0.3631936319302306 0.3571008169598692 -0.0759326538779615 202 203 198
-0.6027789470364525 -1.1118377622847637 0.5125332180570926 24 47 79
-0.7286238604238748 -0.9856387410046819 0.5125921059945894 120 154 166
-0.6120757609752649 -1.0959389525709760 0.5082194313960582 124 158 170
-0.8123923746296461 -0.9801390926579968 0.5258014011278669 20 37 83
-0.6110532108456925 -1.0562347194968729 0.5002184006225335 128 154 181
-0.6165294499479651 -1.1283297290224479 0.5146638648519293 121 155 167
-0.2070092338152125 -1.0741754867410247 0.4268846537356827 120 150 160
-0.6149659048003958 -1.1266012748477943 0.5172247538194902 121 155 167
-0.3426309288793801 -1.1670216352959235 0.4659665906759173 130 157 176
-0.3864775887067479 -1.1463822335122567 0.4730930516308547 32 57 88
-0.8297275828495158 -1.1363465649645843 0.5717208062721417 106 134 158
-0.2876423371022159 0.3512691262495056 -0.0141145846597767 200 199 195
-0.3364185696416772 0.3475012650165745 -0.0211953758028650 204 204 202
-0.2928709096951557 0.3567784077459789 -0.0331995538092366 38 61 92
-0.2110816679123363 -1.1350646980936283 0.4371992277532059 102 130 141
-0.6627017184587372 -1.0029005254957692 0.4995155036652295 21 47 70
-0.8551092272532148 -1.2196371447820840 0.6062458848963176 34 62 73
-0.3799133326373837 -1.1160209699112411 0.4625877521426419 27 54 83
-0.4149768444846118 -1.2187413514700054 0.4971829877384207 32 56 92
-0.2924795963844089 0.3504020074140037 -0.0132795175128935 197 196 192
-0.2913133645264095 0.3518066238730762 -0.0178615593069541 26 61 99
-0.5135485266200212 -1.2751461883248383 0.5354513773515195 131 151 158
-0.2277691676912015 -1.1008068513082678 0.4312064115200928 116 142 157
-0.4229773879440404 -1.0586643719162556 0.4649611666357349 124 153 161
-0.2693857702985647 0.3344098262342426 0.0475776913237409 22 33 51
-0.2866525151926837 0.3492315370303411 -0.0018692486782349 203 199 196
-0.8146070995705808 -1.0856359697625504 0.5582502538418842 22 52 78
-0.4273796443866034 0.3504815177302274 -0.0835933196348075 208 204 205
-0.3959689766483878 -1.1186863247294987 0.4778865347274028 16 37 80
-0.3958817167079053 -1.1282690628116827 0.4815461771242783 18 39 82
-0.3908588170574154 -1.0952777793090902 0.4631376561075921 110 138 149
-0.8352984530687869 -1.1526756581248001 0.5800140753699941 113 144 164
-0.6219286981271135 -1.0769429813936231 0.5083207977591699 20 50 84
-0.3623566570436566 0.3531767235920482 -0.0668169855434295 24 59 99
-0.2281803911728890 -1.1153489274731787 0.4385455574864223 14 38 66
-0.1702739951658026 0.3496447359739352 0.0133225272367875 154 158 159
-0.8081070894104141 -1.0986036480688226 0.5624096453286450 4 30 55
-0.2775361241842177 0.3344252987750936 0.0446885136824154 189 190 194
-0.6120757609752649 -1.0959389525709760 0.5082194313960582 124 158 170
-0.3783612060706213 -1.2173724867979616 0.5045042903480659 14 35 80
-0.6269989176386163 -1.1440302567283582 0.5125450242881766 130 162 175
-0.2557252534686802 0.3554134324400199 -0.0105018842027642 198 195 190
-0.2166118446907735 -1.1990664592675719 0.4871300013317380 26 48 72
-0.2754213987068790 0.3388465463295781 0.0317646394900883 28 58 96
-0.8285173989048448 -1.1723443339507842 0.5833512581034824 118 146 167
-0.8285173989048448 -1.1723443339507842 0.5833512581034824 118 146 167
-0.2754426517826908 0.3354681128582216 0.0434452322142944 31 51 76
-0.6017722229569029 -1.0345231357616722 0.4912431778397367 119 153 163
-0.5138223214437170 -1.1425162938977373 0.4984333623776274 121 148 165
-0.6191941481242630 -1.0859683208867075 0.4815676099006011 29 53 87
-0.2551027163984849 0.3494886246687160 0.0094386057507947 25 56 87
-0.2413979746847794 0.3294457022896945 0.0691265493206795 195 190 186
-1.7973261799296081 2.4978634792551966 1.9879264713373306 20 26 14
-0.3995300054900825 -1.1237954025084662 0.4702173886163658 22 48 75
-0.6638292237897774 -1.0741575579391145 0.5163453653527412 19 47 61
-0.4273796443866034 0.3504815177302274 -0.0835933196348075 208 204 205
-0.3709230715271135 0.3570254493433700 -0.0788944608657366 196 195 190
-0.5086423574745402 -1.1499726753932353 0.5007247916484924 132 151 165
-0.2283707016439395 -1.1249812660254777 0.4194041542329986 126 149 163
-0.2498089015837485 0.3428526060769417 0.0307038785060428 25 58 93
-0.2506079782944135 0.3450149939031667 0.0235461369467460 206 206 204
-0.2665410561396557 0.3308152932507009 0.0582792083354332 38 58 91
-0.2898256322534204 0.3574172428131806 -0.0343495077001423 207 207 209
-0.2655637426135377 0.3529986580190960 -0.0058532839382368 204 200 199
-0.5293337535762367 -1.2235841702087522 0.5258174076830939 18 39 60
-0.4086529269899648 0.3566782906565331 -0.0895727089553849 203 198 194
-0.3585326153738493 0.3485708402185813 -0.0398694345430272 28 57 97
-1.7148053563325785 2.5058905651980119 2.0525223229042080 42 45 34
-0.6580561261651606 -1.1067118662584463 0.5234617128451452 122 150 164
-0.2537106586125772 0.3479950511104130 0.0147026942632229 211 212 216
-0.2120723905912960 0.3496037560209969 0.0264898482523146 36 60 88
-0.5276444172770763 -1.3222994420086527 0.5509959745396779 26 53 83
-0.5153999807532762 -1.3471822358849892 0.5544077969445987 22 43 74
-0.3360472346466373 0.3557971591838147 -0.0559611129377422 206 204 207
-0.2481903909205493 -1.1170349330763356 0.4248276658432004 115 144 160
-0.6512691464696245 -1.0097442695748085 0.4994046173343148 138 164 181
-0.6701325694215945 -1.1519467049470415 0.5362360516885273 120 156 170
-0.4282354823428370 0.3507362184323329 -0.0856255146484288 27 57 83
-0.4972264725454660 -1.0353394071315909 0.4750190751971239 38 58 82
-0.7132404896945890 -1.0825957725404038 0.5291361012837025 116 153 169
-2.0026848198014995 -1.0032035512170616 0.8473632137666727 27 37 36
-0.4193526283757119 0.3571035406758031 -0.0998121403372974 196 195 193
-0.4275205086046507 -1.0310874829763219 0.4600104083527009 28 50 74
-0.3631936319302306 0.3571008169598692 -0.0759326538779615 202 203 198
-0.3617925413005306 0.3566530165509951 -0.0737419426193290 22 53 73
-0.4605758628024019 -1.1824365080970021 0.4982509267410125 28 48 75
-0.3688966738468372 0.3539750375422887 -0.0705524558124330 192 184 181
-0.3688966738468372 0.3539750375422887 -0.0705524558124330 192 184 181
-0.2866525151926837 0.3492315370303411 -0.0018692486782349 203 199 196
-0.3676957483427842 0.3523243731903864 -0.0607152669781621 198 193 190
-0.3599182397722014 0.3524264502887819 -0.0575511821519387 191 188 183
-0.3549070520958562 0.3518238103482884 -0.0543133740338421 212 208 205
-0.3588816069280465 0.3513426942739737 -0.0536907978620925 194 189 185
-0.6483531194840932 -1.0476964978233234 0.5071519591125039 23 48 79
-0.3370464239335910 0.3498185431427288 -0.0366142511096149 33 50 60
-0.3361892559626770 0.3489831373746415 -0.0285218147007992 39 49 61
-0.2842385765004040 0.3549948090391549 -0.0229837878930262 194 186 183
-0.6266508497130476 -1.0282619511188866 0.4943802897228652 118 152 162
-0.3240312693944891 0.3471464605759025 -0.0150415611459183 197 192 188
-0.4827171537945630 -1.3185662755434302 0.5333674450515770 22 48 73
-0.2637449992979840 0.3510915322909866 -0.0017313522052269 199 197 198
-0.2664133797484408 0.3494046270203621 0.0056044448031830 178 191 200
-0.2880545160969838 0.3459214956163785 0.0113819815511388 197 196 194
-0.2827823398410418 0.3430233376351124 0.0171008970540067 29 39 64
-0.2584225556989445 0.3484153274302045 0.0148364227040512 39 54 83
-0.3383641000671387 -1.1240785609441419 0.4543615583735264 113 139 152
-0.2575721848435699 0.3465915352309805 0.0171844984879176 195 195 195
-0.2727488918569937 0.3373797401276515 0.0384347896940185 24 45 66
-0.2672190388467305 0.3365980761121394 0.0427478172351709 31 45 72
-0.2655733275515686 0.3360237832778095 0.0450726085959194 189 189 191
-0.4066506567839394 -1.1984154342924249 0.4891984285844944 31 56 87
-0.2754426517826908 0.3354681128582216 0.0434452322142944 31 51 76
-0.3673591161691117 0.3585550178787321 -0.0819939994342258 36 59 91
-0.5083681846179008 -1.0215933750954034 0.4739238782321416 37 59 82
-0.7346691766670299 -1.1553160667999458 0.5550374514570613 32 61 95
-0.2368057968478655 0.3533138386820822 -0.0013740074824738 193 192 190
-0.2730033960989064 0.3412900419408726 0.0253885196965676 31 48 78
-0.2539865810036775 0.3415365131337302 0.0337242076497387 204 203 201
-0.4090331937247982 -1.2473260400474706 0.5040776876818976 25 53 93
-0.6642974337525138 -1.0543163750800371 0.5121744755314567 17 37 62
-0.6919679351763688 -1.0734635605225433 0.5207657672483215 120 156 168
-0.8190443875092804 -1.2330805569647172 0.6021275987908590 59 90 111
-0.4394917395694236 0.3609148177661402 -0.1044965426653963 188 190 189
-0.4103067549246087 -1.3087007929112353 0.5194645264573083 26 50 94
-0.3665546839145725 -1.1462819387987471 0.4699704563974823 116 146 156
-0.2930824805751512 0.3548697328517672 -0.0278020724427606 181 182 186
-0.4901897458344586 -1.0263044171587856 0.4639769320272812 28 51 82
-0.2616920237251995 -1.1135610421167383 0.4348543124469101 24 45 64
-0.5245236463391120 -1.3274589423469154 0.5517511029567005 120 142 165
-0.2647871528108607 0.3432686559968504 0.0338659568393909 25 57 95
-0.2647871528108608 0.3432686559968505 0.0338659568393909 25 57 95
-0.5142789748823257 -1.1466629563017179 0.4939798119205525 121 148 165
-0.3989509678772894 -1.1084819489520763 0.4670930467770510 115 142 151
-0.1848599168803712 0.3497074283142483 0.0234395736315036 38 60 84
-0.3451464187717021 0.3573582071201916 -0.0671985661175262 192 185 177
-0.4616320563236967 -1.3034344827814044 0.5291468729147658 19 46 75
-0.3647759648361638 0.3483962017325828 -0.0444800852596046 198 194 195
-2.0289344108364968 -1.1172735606370805 0.8792286394545363 35 41 41
-0.3552001974676586 0.3490224253401428 -0.0418887301742733 196 194 197
-0.3545325090583770 0.3482336058749396 -0.0394955163121426 37 60 92
-0.2950720434514181 0.3530430503465549 -0.0217394238277830 207 205 208
-0.2885632906526578 0.3486986387253158 -0.0034812433638726 27 46 78
-0.5165133837366753 -1.2202403702507707 0.5203361710970310 123 146 162
-0.2455295148937407 0.3425770585090250 0.0334443363945311 211 215 218
-0.5183848136239617 -1.1490074709759683 0.5025075529758671 142 165 171
-0.2664582508750000 0.3373006946993385 0.0404266617730031 198 194 191
-0.4064068320908634 0.3647879152825755 -0.1264691444062001 23 57 94
-0.4433851036800939 -1.0917433631513103 0.4701487027594177 5 31 56
-0.2675593105754906 0.3583348095641735 -0.0267525857644468 29 55 80
-0.5223159479314862 -1.3320777015016076 0.5550970185441488 9 31 52
-0.2758362233898301 -1.1205842562784589 0.4350780450164047 4 29 51
-0.2397037791126362 0.3308604307778923 0.0664196605327953 29 50 77
-0.3596439097450089 0.3569944351392212 -0.0713101314717046 208 203 199
-0.7346691766670299 -1.1553160667999458 0.5550374514570613 32 61 95
-0.3585326153738493 0.3485708402185813 -0.0398694345430272 28 57 97
-0.7455044078758292 -0.9945695841056008 0.5188145384902552 35 60 91
-0.2530034802066765 0.3468498719104275 0.0172575629199423 30 59 89
-0.7220594189490496 -1.1426077078002435 0.5477757202680257 114 150 164
-0.4133714473046651 0.3557254923515443 -0.0947936407470597 23 57 95
-0.2506079782944135 0.3450149939031667 0.0235461369467460 206 206 204
-0.2477185105951600 0.3264143383270509 0.0740974776224858 23 56 91
-0.8254630105757039 -1.0197039412431663 0.5374409498282947 18 43 74
-0.4649098091714701 -1.1767055776815729 0.4978346682528340 127 151 161
-0.4133396506583338 -1.2073914349762975 0.4939743940012990 33 56 88
-0.4563378772315681 -1.2539240758380057 0.5152893869174031 122 142 149
-0.5076722060926112 -1.2589584194507482 0.5293559272208018 23 50 71
-0.5076722060926112 -1.2589584194507482 0.5293559272208018 23 50 71
-0.5270540908206395 -1.2661298278174644 0.5351100524144293 32 59 80
-0.5135485266200212 -1.2751461883248383 0.5354513773515195 131 151 158
-0.4588048447295064 -1.2994695651945547 0.5223956150562593 120 147 154
-0.5328686548109914 -1.3313225760624281 0.5548798040709692 12 36 62
-0.3908588170574154 -1.0952777793090902 0.4631376561075921 110 138 149
-0.5132054033040611 -1.1586606754997308 0.5037743562619946 134 160 173
-0.4804705820569929 -1.2998405957600259 0.5321882359035329 35 57 81
-0.5012248423964930 -1.3065452547512768 0.5391408448273891 120 152 165
-0.6652000829716845 -1.0440356756690310 0.5103064603200207 28 52 86
-0.2817787695311058 -1.1311525893130114 0.4575882732944556 111 140 148
-0.3929199699270115 -1.1253184389538589 0.4714556236696380 115 145 155
-0.5024645836735592 -1.1903752547700563 0.5104888159684591 36 53 83
-0.6696375321658632 -1.0434554025357994 0.5116411527006047 6 32 55
-0.5086939523832257 -1.1500003363589111 0.5007610256859808 132 151 165
-0.5205198603783003 -1.2221818961654793 0.5199665457577521 118 147 165
-0.5298229139415029 -1.3161315027892277 0.5527479906716481 112 141 157
-0.4547502713962792 -1.0275689003970239 0.4649255305123980 28 46 68
-0.2557698873086234 -1.2423144495081788 0.4587835194456788 115 145 155
-0.6601848587582521 -1.0496483835605426 0.5103595095894092 140 166 181
-0.6093682033021177 -1.0553986381990825 0.4958317440966121 110 128 152
-0.3469824511242315 -1.1034648501817190 0.4493484965385328 128 158 169
-0.4008594601089480 -1.1398237994224134 0.4724921126533297 127 154 163
-0.7616565552407666 -0.9759415461730298 0.5168677258330834 14 42 66
-0.7581943034542420 -0.9811007117009933 0.5142508996170313 119 142 160
-0.7581943034542420 -0.9811007117009933 0.5142508996170313 119 142 160
-0.8189459713407506 -1.0258629574718465 0.5426525690622764 108 136 148
-0.3480112077091159 -1.1086488415154130 0.4510659714242907 49 71 85
-0.3987961041147067 -1.1089674002484318 0.4663134800641248 115 142 151
-0.6724886843353943 -1.1042842113242113 0.5262751261809777 121 149 163
-0.5152651589410077 -1.3469920444365564 0.5542266518823149 22 43 74
-0.6724886843353943 -1.1042842113242113 0.5262751261809777 121 149 163
-0.4984159570036365 -1.3215321004620635 0.5084702299744371 115 147 160
-0.5498304029800291 -1.1214732076813954 0.5029657258228811 19 47 71
-0.7264526213073428 -1.1000710769865034 0.5385724174500608 26 53 74
-0.4463535627265602 -1.0314587968121909 0.4589157561522706 38 58 85
-0.4035467154704167 -1.1499946600402724 0.4762659200472761 125 153 167
-0.4038177889741082 -1.1500433803031995 0.4772452987904329 125 153 167
-0.5591076360512396 -1.1041562299825447 0.4993650380300511 121 153 166
-0.5165478369636983 -1.1539413253775901 0.5042673007871457 24 47 63
-0.5068349764690070 -1.1655948474888067 0.5044232256505876 25 47 71
-0.5068349764690070 -1.1655948474888067 0.5044232256505876 25 47 71
-0.4021109057695294 -1.1944449513813278 0.4871597054748090 129 155 182
-0.4019114531389768 -1.1944173617712925 0.4868451788200944 151 176 198
-0.4938648013203921 -1.2631288627046504 0.5198997861565394 118 150 163
-0.7149066626251448 -0.9958246307721649 0.5107699289659566 13 38 60
-0.7627063558250967 -0.9928572729276117 0.5212717963280098 17 44 63
-0.7047930324411485 -1.0092173750452464 0.5112630528326333 27 54 84
-0.6641366503473782 -1.0542561329343982 0.5121493751975408 17 37 62
-0.3794554414429505 -1.1165919446654040 0.4642429530536255 27 54 83
-0.5231265645634635 -1.1638237291868723 0.5075013151774731 21 45 69
-0.5232323741762430 -1.1637766439386954 0.5074786009454165 31 53 77
-0.5116142983229021 -1.2165235012992939 0.5185121944684427 31 57 84
-0.5128601130260074 -1.2688054358314298 0.5325576492449625 29 51 74
-0.5170535639698743 -1.0999981165758870 0.4903831539166463 32 52 76
-0.4418303092224167 -1.1532801187732378 0.4870913676157050 20 42 65
-0.3895030030796468 -1.1923219523209119 0.4847190268443615 36 62 99
-0.4615315409325802 -1.2430745838644031 0.5136750739666202 117 145 156
-0.4896721514434714 -1.0711756616459935 0.4779870589781740 28 47 77
-0.7103224683645819 -1.1275262551938074 0.5415566717743882 29 55 88
-0.6576959660710502 -1.1376261024996515 0.5310778605756168 22 49 79
-0.6579570180314760 -1.1372283681466768 0.5329913226565004 22 49 79
-1.8480426194136896 -0.8714367095848453 0.7890577397495875 6 33 60
-0.5024791003880972 -1.1903564427875453 0.5105061047710044 36 53 83
-0.5287239813485244 -1.3372759726778973 0.5534937051436449 106 138 149
-0.7066836670532824 -1.0238783398245175 0.5141516993907066 115 151 163
-0.8071620809877212 -0.9736689888242859 0.5268887238333120 25 46 77
-0.5557181921138935 -1.0726416444113314 0.4904921722869582 118 148 159
-0.7739740912332138 -1.1350110276143142 0.5572576775671768 121 154 169
-0.5148462760247235 -1.2021835358761466 0.5150383070383284 115 147 158
-0.5487637794571438 -1.0378240187006358 0.4803230326444802 123 153 163
-0.4595193728346821 -1.1984940114299365 0.5019246685943103 123 148 155
-0.7574047810240321 -1.0099182266359692 0.5218349649726480 117 151 163
-0.7127313540270722 -1.0401649125462826 0.5196073729024704 122 146 170
-0.5828144270977856 -1.0712512982843301 0.4951169900846492 124 156 167
-0.4797133132476404 -1.0920022217511105 0.4812541005023054 125 155 165
-0.7446356290260026 -1.1076818142990870 0.5432509477697934 116 152 166
-0.7843404216551183 -1.0038193903340551 0.5260986418264847 113 149 161
-0.6699932632922827 -1.1519654189963902 0.5361965439936982 120 156 170
-0.2881949817226195 -1.2300376792974568 0.4696301805095466 22 38 51
-0.8095070470231710 -1.0020781485647241 0.5311013796556558 111 147 159
-0.2822065371499376 -1.0949355866938817 0.4279534536924386 115 140 145
-0.3845413183068778 -1.0844206553003932 0.4546640987642111 140 167 176
-0.5687695533616004 -1.1138022116768800 0.5050043103778317 132 160 174
-0.5687695533616004 -1.1138022116768800 0.5050043103778317 132 160 174
-0.6701655500395203 -1.0435581679189978 0.5113870663269083 6 32 55
-0.3792280401313573 -1.0835636998256597 0.4524015814475336 8 34 57
-0.3796918902493411 -1.0836452991250431 0.4559250066984387 37 60 94
-0.6131885667096866 -1.0565535818602447 0.5014781199093522 15 43 67
-0.3965350023940219 -1.0928929662364242 0.4619617840057200 31 54 86
-1.8656595754100025 -0.9370669869942596 0.8042863927051810 87 116 120
-0.8218581568069652 -1.0355407479839698 0.5461529375324861 95 124 140
-0.6638292237897774 -1.0741575579391145 0.5163453653527412 19 47 61
-0.4022165022013743 -1.1289404181663063 0.4722704987625433 126 153 172
-0.6740134266995229 -1.1097420247039491 0.5285775531825863 23 48 70
-0.6740134266995229 -1.1097420247039491 0.5285775531825863 23 48 70
-0.5205464560233493 -1.1326553540039561 0.4989969360305520 28 47 61
-0.5032399459094213 -1.1795811883465899 0.5060869258793764 124 152 163
-0.3867425457872450 -1.1521432001559822 0.4729078660619142 122 149 160
-0.5002477173473792 -1.1839674011628709 0.5077725757644086 24 47 65
-0.3937417298339338 -1.2525127307963659 0.5016720156237799 28 55 85
-0.4045235093750447 -1.2597327757736154 0.5059767325562901 23 52 86
-0.5133854927206570 -1.3405752205495787 0.5522871164678742 4 32 54
-0.4275205086046507 -1.0310874829763219 0.4600104083527009 28 50 74
-0.7149285184839383 -0.9953817864984257 0.5111673203842643 26 52 75
-0.6580561261651606 -1.1067118662584463 0.5234617128451452 122 150 164
-0.5228877848506864 -1.1527449643367296 0.5043692938361231 41 63 84
-0.5343823791571710 -1.3265862693571620 0.5524479033522642 114 140 155
-0.5246116555043892 -1.1733777241700294 0.5094772029403027 17 35 57
-0.8251914442626374 -1.1337633977013859 0.5733213570941318 129 150 171
-0.8239799402811298 -1.1340599737046280 0.5761789626380242 129 150 171
-0.4591984998482496 -1.1985540043635261 0.5019266070843127 123 148 155
-0.3849241826852265 -1.1090773663298670 0.4655797500111971 116 143 154
-0.4131649431942760 -1.2069417004686549 0.4945372690963029 33 56 88
-0.4735279805674635 -1.2126331761659841 0.5089108065215361 34 56 79
-0.4704920301263236 -1.2290099126711418 0.5128186699937596 124 147 161
-0.5388643733644130 -1.3438248194044018 0.5585720473342478 25 51 74
-0.5192463334159265 -1.2518657618486153 0.5290605036375102 116 139 153
-0.5192463334159265 -1.2518657618486153 0.5290605036375102 116 139 153
-0.5322089725527300 -1.2553395361842918 0.5331191191331039 27 47 71
-0.8233264703030961 -1.0937552416814624 0.5612109340220121 0 11 45
-0.5128601130260074 -1.2688054358314298 0.5325576492449625 29 51 74
-0.4675679874513637 -1.2847846967058820 0.5262938733583259 124 147 161
-0.4803590115456460 -1.2885677840739456 0.5295071690979255 26 48 72
-0.4226357244615704 -1.3141822920229340 0.5235728696518999 23 55 94
-0.3777018679729023 -1.2740269213708999 0.5005489748057993 118 151 160
-0.5206781465935135 -1.3234642332648523 0.5514967419288893 1 31 57
-2.0033652952141230 -0.9951351648165930 0.8493189669152756 125 135 136
-0.4621608345825146 -1.2425857208731552 0.5143793795391001 117 145 156
-0.4833089127946181 -1.3495192728570469 0.5455678550539536 39 60 87
-0.3924243652304579 -1.1268586499250126 0.4682695456932216 115 145 155
-0.6576959660710502 -1.1376261024996515 0.5310778605756168 22 49 79
-2.0070877045389026 -1.0106330621627480 0.8491297051797123 36 47 33
-0.5591076360512396 -1.1041562299825447 0.4993650380300511 121 153 166
-0.7220594189490496 -1.1426077078002435 0.5477757202680257 114 150 164
-0.5202262313854034 -1.2212384000895333 0.5217076494094164 118 147 165
-0.8530582972163536 -1.2230863613698462 0.6044579301936450 117 146 160
-0.5235805226687796 -1.0442803975046904 0.4764044702546753 123 153 163
-0.5238413357366487 -1.0443402633038583 0.4766290277251702 123 153 163
