ply
format ascii 1.0
element vertex 686
property float x
property float y
property float z
property uchar red
property uchar green
property uchar blue
end_header
-0.8820092762658608 -0.23709083813547788 -0.3109716055206154 126 162 178
-0.6848290997581649 -0.04442012588126032 -0.36825913336384497 163 184 198
-0.8078324100023768 -0.22094739678332354 -0.31306618802887554 112 139 148
0.24668006345323254 -0.03442226200238174 -0.2981968970875381 108 135 146
-2.6474045498044982 0.8479755868748423 0.9120005644447327 15 35 73
3.0856472326299733 0.4332468020520206 -0.46303303863471057 121 130 129
0.24668006345323254 -0.03442226200238174 -0.2981968970875381 108 135 146
2.9731327862125982 -1.5327872196986085 0.36708151821886137 127 146 163
1.292221882834131 1.0527081958321758 0.8066573402036203 151 148 141
-0.8090671964418107 -0.02213230564084495 -0.38526501567999366 135 166 188
3.0783027141505896 0.1035812319299168 -0.4492381589701673 27 30 36
-0.5817680264902101 -0.017859434281509767 -0.3704072207144162 14 40 63
2.931614518112156 -1.786023438786024 0.7702467093756498 92 99 107
0.22221921872928538 0.10751595483680554 -0.3543573048166395 111 139 151
2.966006670336792 -2.214795881602899 0.2748555070721439 69 81 94
-0.8412284473807039 0.009532825578216886 -0.40111410254219165 14 46 87
-19.385998950315255 -54.70621871137264 0.4709133922141746 167 184 194
3.080486752249357 0.880766555724294 -0.3395700759351685 125 126 118
3.076112064254137 0.0661011309364829 -0.44612979683715226 134 145 149
-0.20512026218097354 -0.29541670026389377 -0.23575028419196914 15 42 74
3.087439747840313 0.7711766804315506 -0.41395682671036077 134 142 145
-0.43423240044636807 -0.2647371632223852 -0.2638939513763884 126 161 173
-0.7796625441439423 0.08948477503450908 -0.4256587643992764 12 42 77
0.8010525558624678 -0.4282140839284371 0.7050506694286522 119 153 165
0.23547941384749094 0.09860447126840016 -0.3491233145142277 7 35 57
0.32782922228909356 -0.28412411870738585 1.0206282287178967 141 60 82
1.7140452025465214 16.68110057233334 -4.990844415489693 193 219 236
3.1150281989789623 1.4811700286303835 -0.4525854577363086 44 44 42
0.23547941384749094 0.09860447126840016 -0.3491233145142277 7 35 57
3.038527869882056 -0.13940661153373982 -0.05753101962444318 104 114 116
3.0995952482002287 1.2295388189171503 -0.4312745349267364 163 168 164
-0.7867909302383098 0.12979351232120517 -0.44121269046892075 10 45 85
0.5587721241258405 -0.42235617392346025 0.6897433663769412 115 155 167
3.071093079105607 0.09930194231905004 -0.39132438570233496 102 113 117
3.079453594044007 0.1259623978907144 -0.4506244949073661 116 123 125
-2.4557139345301815 -0.5824478187223722 -0.2992605210685877 9 26 44
0.2735952633325843 0.17487230909711482 -0.3746568611198592 6 34 58
-14.704888173813547 18.92563871453591 36.46445073308241 54 87 110
-0.6517322543919337 0.1461488848018731 -0.43681295261299213 15 36 63
0.08997091489102385 -0.3894403715088654 -0.17833213350547256 18 45 66
0.43891447579347076 -0.2988909808806704 0.9981854917429369 112 146 158
0.2957320448490661 0.18315552185113043 -0.37500465984277104 27 54 71
3.0973756039333846 1.5497364483874692 -0.28846068892884696 50 50 50
3.053460491240068 0.1882054778032226 -0.16331178972352106 96 104 106
0.266512201688537 0.11967052609712692 -0.3546609346491541 16 42 67
3.0948615538103694 1.0486607928176528 -0.40123804931902873 116 122 122
-19.531623423751686 22.563907020051335 31.253763241143727 93 90 41
0.2891376938609888 0.194023340418982 -0.38036584577082777 112 142 152
0.27550074720314344 0.19869465302450756 -0.3835673057341449 6 33 54
0.20687788422481482 0.098968022696167 -0.35114479297567536 5 31 52
0.27550074720314344 0.19869465302450756 -0.3835673057341449 6 33 54
-0.36275802289342884 -0.1994917358249746 -0.28516919443164906 125 159 169
-0.8379169795369803 0.0378710521018189 -0.4110175977594793 15 43 82
3.095558252286645 0.212587942347797 -0.6073794770356966 130 138 139
-0.6906022662100617 0.13213060073875516 -0.43422110888082954 134 160 170
-0.69656818016414 0.24800778374498 -0.4788568345325664 18 43 73
3.0575936704255207 -0.3729547673137354 -0.3109514414521802 117 128 130
-0.6967374917947876 0.2479525972540677 -0.4784236550659331 18 43 73
2.555236948370091 -0.2962861779305592 -0.024416783816451626 4 37 81
-0.5606243099933804 0.199713194129776 -0.44953283265608734 120 146 147
3.009890372825057 -0.7882617435848979 0.13699708079324213 135 146 152
-0.6800153906228686 0.27033454363422194 -0.4844649137834697 14 42 63
-0.7999452152836617 0.12314469417985568 -0.4385925688525073 145 170 181
3.0604702208547354 0.2912116938383419 -0.20280346288442397 67 73 73
-0.5450581717415633 0.14689386664362364 -0.42853264410325775 113 137 141
3.036156972039374 -0.9170735066264797 -0.15661592548458436 66 71 75
3.0764193035390583 0.3091736545960616 -0.41062857240391526 100 110 112
-11.178269996359745 -47.04556384069127 0.37000885703630004 18 27 6
0.6783072284378536 -0.4511197949055852 0.6121051885472453 139 167 171
-0.5393333198440554 0.325869964107109 -0.4951825986426822 115 143 147
-0.9793815251355058 -0.3386554386571521 0.6868037333532975 120 153 168
-0.6545378792664441 0.13064119905141802 -0.4314808394359959 137 161 173
3.0843720198833218 0.38938373687773176 -0.47369450857935785 112 120 123
-0.0674238623403502 -0.1484788184558569 -0.27822241188407215 14 40 65
-0.6971549481433694 0.14220479988239926 -0.4453664916059059 15 37 59
3.0889126002393543 0.4648724126970081 -0.5117867325431983 114 122 125
2.188822734414933 15.353449478711331 -6.95380144702772 180 206 221
-0.5234075127894132 0.19789102106582507 -0.4462400710525414 117 139 150
3.0897010193269128 0.46527920333870154 -0.5108193576128306 114 122 125
-1.2327157149247419 -0.006387897923147812 -0.4274262877158753 29 49 73
3.098115800994698 0.6282792092688066 -0.5505422261106216 137 145 148
2.7405592510619976 0.058507824408360554 -0.1366437195651744 7 35 55
-0.6986447927278032 0.22001073650065261 -0.46875174127247454 15 41 65
3.0639516252157004 -0.10998254407084354 -0.3946252425138077 111 122 127
-2.040702468569117 -0.22713813600386384 0.8409039041589328 118 149 170
3.0928027331819528 0.8115174053844226 -0.452367342308712 152 156 155
3.05063234323219 0.18774087258230382 -0.1502240836349688 25 36 38
3.1018776576936182 0.7987096053788142 -0.5489886221961614 154 160 160
0.20235576504670497 0.20327950197156686 -0.3917660090792325 62 90 102
2.955943025090677 2.309923677874638 1.70659882639668 202 203 205
1.0932585476175563 14.094169213120912 21.07888378380082 160 184 208
3.1030478039492784 0.7988165032241922 -0.5483367799216955 154 160 160
3.0780098809753746 0.9584314330640126 -0.27039703290023537 47 45 40
-0.5272655509896602 0.18321308377712503 -0.4409578464306304 11 37 64
0.7977933488410094 -16.564238260876238 -0.6377528054472535 157 173 186
-1.097118842141484 0.8596012993832077 -0.7329382293563973 75 95 104
-0.14657418780611703 -0.01842589453790694 -0.33466130646351483 124 159 174
3.0129211448997166 -0.6460110275694304 0.13650852736932084 80 86 85
3.106522137628384 1.0973457311018997 -0.48894459024043796 134 143 142
3.097563385810852 1.2040951815531464 -0.36374919968934544 147 152 148
0.5791351865452528 -0.3287466217728246 0.9330785149295431 20 49 57
3.1063657544847474 1.3614666338433943 -0.41080159580392617 64 66 65
-0.567552032622325 -0.15633395881330547 -0.3195081423193407 30 58 79
0.5894161933218912 -0.5921615228079891 0.22911070642767672 125 161 168
-0.5162941895319983 0.3256063259960832 -0.49319769500159893 131 152 164
2.507574047912942 -0.10123765714695637 -0.08521657939257854 80 109 117
3.1091308967167257 1.504792723776208 -0.48636535690939897 162 168 166
3.2190386765281667 2.333033008331734 -1.4259387015963787 73 81 84
-0.3721807375778195 1.009681825858232 -0.3337858964781911 56 73 94
-0.16235208643690935 -0.39533267866006966 -0.19470751945585252 9 35 59
2.928737409805508 -1.827963330637636 0.7600302616003773 44 50 62
1.6850023803129304 1.6420063859470497 16.73869062341426 91 116 138
3.0178693863864123 -0.8804499873521591 0.01684708060655027 137 153 165
2.933982635837785 -1.8072136029933294 0.7683398705517541 38 41 57
0.8027135445786782 -0.21578889484066255 1.2671242176608477 22 37 66
3.035508807862551 -0.9243595502135634 -0.18491625624211966 61 65 68
2.0090396177909615 -1.2868567223392655 12.308433840009528 110 132 153
0.907635553444132 -0.31341447548872303 1.0132567994513244 121 154 161
3.0344719335497126 -0.9245600768953899 -0.18573766408936437 61 65 68
2.781482117271557 0.27616247940976957 -0.2403975160368476 89 118 124
-0.012744200037686199 -0.2851324611813403 0.9659987914649313 3 19 23
0.04765480103224357 -0.3897315753822314 -0.18203080500971563 14 40 63
3.0259353032621474 -0.902242126604582 -0.0664682252459603 144 159 167
1.2997191050120285 17.931423564076713 -3.6350878692579256 57 60 94
-10.120433186037543 50.66906701686173 -9.627039456876068 158 217 251
-0.637972696736211 0.28427213091464854 -0.48807288936148485 18 43 67
2.6446698919355818 0.0112086766271281 -0.12676701947832802 0 24 78
3.056895609464095 -0.5777091666495224 -0.33508663870680055 38 47 54
1.1713265647971454 14.02924537762744 20.819274404388096 167 191 203
3.042489818843804 -0.6039398568326635 -0.18752914379104524 139 152 160
-1.0851580574901976 0.02625838231270622 -0.4280335695810119 137 160 166
3.0816769810626496 0.588492441775085 -0.3949958631558004 92 97 100
2.4971242067526895 -0.3855194232833149 0.009916214766906295 0 24 79
-19.13746043961374 -52.40121759373911 -3.044504671810207 7 20 10
-0.34983188786186437 23.525248742617627 -9.878524651940177 54 50 66
3.0493493320095486 -0.4115167447657218 -0.27224142863341505 104 114 122
-0.6980602583749937 -0.11672831338111359 -0.3414832786857807 127 155 166
-0.0582475939603759 -0.3696789717467157 -0.19806627700718243 5 33 54
-0.0484610769214406 -0.308310007144724 -0.21561424697200632 11 39 68
2.982103388358754 -0.9058850836375962 0.4264210215786104 46 55 62
-0.6937791211358196 0.35756845896897727 -0.5202351737010493 10 41 70
2.6053458060890815 0.12539147793217292 -0.1708330858852768 0 24 77
-6.9938947350608744 43.72964655428976 81.96956544451642 33 38 41
1.7829216427486951 16.059769941656484 -6.703443176178144 47 44 63
3.0800909678692054 0.10475987461366215 -0.44760304438043585 20 21 25
-0.6901973802457191 -0.29519269624957706 -0.2738484738754858 16 43 73
-0.6676244485712267 -0.2967825210992063 -0.2713549083500468 21 42 73
1.1963655565635276 3.7009326874978403 22.19568110942207 93 114 130
-9.975223027376705 -27.531903101219317 -17.871739370131735 49 64 59
3.066297982986873 0.2790204055252782 -0.2989090253907535 73 79 77
0.23919083828296822 -0.3102211285715702 -0.19587567049607774 14 38 64
-0.1885093817834834 -10.28927562129109 11.409688487949687 158 167 171
-0.5614393643198444 0.18483317200937605 -0.4446377866371905 7 35 51
0.08442326138347495 -0.3047732024484798 -0.20972988613790755 8 34 59
3.0879523166101266 0.536393542066611 -0.4949323733788828 133 138 141
-0.03233076150544858 -0.2968354657901774 -0.22180611204777778 123 151 162
3.0294126871741716 1.8400673432073207 0.6244342762952122 70 79 88
-0.032697260047062436 -0.2968300469652335 -0.22185685470683553 123 151 162
-21.5077302969633 22.347910602609886 6.15801620640122 130 127 116
1.6493405980727787 16.707677992155556 -4.922431391677613 55 53 82
3.104989195145073 1.2330407512256287 -0.480344918276878 30 32 57
3.08339773660552 0.6130622363830647 -0.40738807555867207 119 127 130
0.10215441869131525 -0.29834098977780593 -0.21100825690186542 120 149 157
-0.8156081529684316 0.25050066367788826 -0.48946027377994816 152 172 182
0.10215441869131525 -0.29834098977780593 -0.21100825690186542 120 149 157
3.096111974387994 0.5882658774952175 -0.5547810311005352 94 102 104
2.5331913960884034 0.1993760344827979 -0.1891016502412613 77 106 112
-22.33174390703543 16.662213290499267 9.150105920091134 163 168 162
0.08509608062366192 -0.2920000911756745 -0.21509880901033196 10 36 61
0.819130904764981 0.7364540074983738 0.6441039969215967 223 216 200
3.092984514828061 0.10025148797854722 -0.5322828274164039 162 164 163
-0.27984511811251195 -0.2843480440335265 -0.24586101420594925 119 147 159
0.8804809125205916 18.509673404058518 -3.228585008430539 40 53 88
3.0180717843174336 -0.7640540344782526 0.03780896957313484 164 178 181
3.0741658901506583 0.4146326140165597 -0.3475174794864553 25 24 35
-0.28001966337382544 -0.2843489014216091 -0.2459166687274278 119 147 159
3.081582685246116 0.6758359861834389 -0.34295523272242334 105 113 116
3.070690570222818 0.2777856756388374 -0.3330289892390216 18 16 17
0.2267063304407795 -0.29262451860348787 -0.2018505099898959 116 146 154
-2.448743337776501 27.761251609605253 -8.310821161046158 164 190 205
0.4131683435355337 -0.2960305093972726 0.9984801600675961 114 148 160
3.106629386718337 0.826094318697728 -0.6162086013981682 34 37 44
-0.16649679960879435 -0.27589640997504383 -0.24043199680114768 21 44 66
3.0681289881426346 0.32200052692743963 -0.28476380759551806 114 124 126
-0.16649679960879435 -0.27589640997504383 -0.24043199680114768 21 44 66
-0.5255763325346883 6.1637709437501496 40.01583893305549 48 57 59
-0.8318923869134542 -0.2894370430978984 -0.2877489429262221 125 159 172
-0.7674249872814081 0.8299196344471244 -0.7060034722185001 24 22 27
2.2440309971875347 15.16162011938433 -7.425514462658658 181 208 227
-1.2322264271624281 -0.2511587440141807 -0.33555424758945873 112 139 150
3.080487864732413 0.3579644798919632 -0.45873730449202565 126 132 132
-0.9225383251167999 -0.25639466840184144 -0.30791011789461176 15 43 64
3.104341873010531 1.241855845085443 -0.4686676758544269 149 157 154
-0.7727214028647708 0.2153990262281319 -0.47258325039235594 20 53 88
3.200975094209943 3.9804443051851415 -0.8062432610519803 104 106 105
2.4330766629439458 14.739086591668794 -7.0408385534109765 44 47 69
3.0705975582746166 -0.22635002091414316 -0.46844631020050925 31 38 49
0.22163939173397304 -0.25701142951610184 -0.2175497020948014 11 37 74
3.0950126492016716 0.6799361103197678 -0.5215745147490496 137 146 145
-21.217297321469047 -53.83984485441642 -1.3986824783196758 116 113 98
-20.29004449306986 -48.18742237345514 14.401289170061323 136 144 133
-0.8405996063935551 -0.21951768576722078 -0.3140223329122713 131 159 175
-0.1882736840157853 -0.2562580742500749 -0.24888178904102598 125 159 168
-1.2409229638090287 -0.19125050241416125 -0.3602878359789288 16 37 64
-7.085253192834644 15.88731691484753 2.7146609636027854 175 202 221
-1.2061776588505515 -0.024299598976831815 -0.4164500957256554 111 144 159
2.665225892362309 -8.612133367567061 2.7026008287325376 162 175 191
1.9551323104113012 16.28757297344621 -4.416100703246985 193 211 231
-1.1871124154608275 -0.21350454719104625 -0.34302092939141327 15 41 70
-1.1878741948886753 -0.278419550687112 -0.3227948123249003 158 183 185
-1.1872571884958514 -0.21361122296506962 -0.3428319448696914 15 41 70
-6.701492426456708 15.846589706249 2.3273723773094823 182 215 243
-0.7018518777327115 -0.2457940315034599 -0.2942521282036624 12 39 66
2.343321922310004 -7.723574259395776 7.417112452104593 119 131 142
3.086068467971314 -0.18195106000881076 -0.5829500579193186 33 43 53
-2.8520332250763483 -24.045785474830595 -7.682461698364321 111 116 93
-12.921656069207028 -53.167741600205055 -10.514896688550785 5 17 14
0.24758475615286282 -0.1778630564635318 -0.24428079025600724 6 32 60
-1.229620973679209 -0.20280563350330902 -0.3538349218260379 119 148 154
0.21020224068752164 0.1767996787864829 -0.3811796277644446 2 36 73
3.0293925355284004 -0.8880271827047466 -0.08024019005992333 71 77 80
0.23483783741878103 -0.21903662141182725 -0.2296145807395033 109 138 146
-2.468020489173281 -0.24485061229798322 0.7363318204668581 98 123 145
-14.27405348778764 18.29284355380116 -4.7981949679014075 246 239 239
0.23483783741878103 -0.21903662141182725 -0.2296145807395033 109 138 146
-2.1485197624051553 26.24669216063012 -9.874556445589384 31 28 45
-1.2278554556271144 -0.04021154455582471 -0.41223762051255053 17 41 74
-0.6634662232591371 -0.2048879675310418 -0.3049360505772952 23 46 74
2.8872167900832997 -0.6142575895982176 0.12502043042791156 144 170 171
-7.085253192834644 15.88731691484753 2.7146609636027854 175 202 221
-0.7127317696375343 -0.10602585804710282 -0.34866979112501506 18 40 63
-0.6631995722659165 -0.20501690133734388 -0.3042306416786347 23 46 74
1.5493913630831815 0.9271387087030464 18.187482069105332 90 116 133
-2.0812319175319227 26.341093783378604 -11.162207990423457 58 46 82
-0.6782683103848905 -0.25604862434606857 -0.28881659394467235 140 171 189
3.084690046938438 -0.16784261019765898 -0.5777259466295241 72 85 94
-27.366757237295545 14.301635852433156 16.973806496760634 213 204 175
1.9551323104113012 16.28757297344621 -4.416100703246985 193 211 231
3.084690046938438 -0.16784261019765898 -0.5777259466295241 72 85 94
0.06551750950887877 -0.17338148027518974 -0.2614125482999605 7 38 69
-0.6832699695742392 0.24791812294622972 -0.47742477531918553 14 40 75
-8.255922808241513 11.275870656795414 -7.062155331895454 105 103 91
3.092358650094216 -1.1699567644164992 -0.7785881867622648 86 90 91
0.24651284182940136 -0.20820735669833074 -0.23341501907585777 10 37 66
1.1577603950395985 17.133472456771447 -8.405608647846048 64 63 95
-0.6739925404852503 -0.03318951046772478 -0.37151958769599047 14 35 62
-0.6987157639664474 -0.18293188936136456 -0.3180262727502696 20 44 67
-1.2309926859396447 -0.21938363613081802 -0.3458902089380498 116 150 160
-0.636282198203178 0.3601219463691335 -0.5167353772284904 16 42 74
2.9922951100187536 0.050140634557096386 -0.4627410603297511 144 153 152
-14.27405348778764 18.29284355380116 -4.7981949679014075 246 239 239
-0.6587218302393273 -0.1844771547767609 -0.31438957735316886 20 42 63
-0.6836412782847898 -0.1716857532702724 -0.31990086424720016 144 172 184
-7.0044125347149535 -47.749932031233904 23.35856269472466 39 49 52
2.168709203045353 -14.65654353142975 -36.89882053123639 14 29 8
-0.33389681754503964 -0.28345712290426 -0.2503945171326507 6 31 67
-0.6593038062014845 -0.15791249633800278 -0.32384397926077013 22 45 66
0.24134517730984353 -0.25836690490133085 -0.2138971338510156 21 45 75
2.0623440733172766 -0.2305858115555489 11.775979143207234 93 118 138
2.7373507346009673 0.06325723614146012 -0.14404946516975292 78 110 125
-0.1749462059171154 -0.1589237562462263 -0.2841574701092748 12 38 63
2.9839790901019523 -0.9711394689323057 0.43489316897800645 134 153 167
3.032103385697268 -0.24265593463001928 -0.0082833778560234 103 112 115
-1.7495745182648634 25.567898260583643 44.23065299783763 0 0 4
-0.025110262084872485 -0.16088628313566045 -0.27109148676570083 120 148 154
-7.909505044037896 16.9415871711294 5.331314295666441 109 106 136
-0.025110262084872485 -0.16088628313566045 -0.27109148676570083 120 148 154
-9.411402355403505 15.479350113353515 1.3166722102281432 143 181 190
-13.32612466441502 -38.36865701679016 24.200721124172766 0 8 0
3.0919078297336533 0.5401784618422024 -0.516742811191734 97 103 101
3.0475076475212917 0.06672778747239144 -0.12296897309849564 103 113 112
-0.0672244959536201 -0.15020469543588763 -0.2803442818344617 13 39 66
2.748408434717929 0.2654269435507294 -0.21465881062648717 88 113 118
-0.04357521927736779 -0.14876589463687032 -0.2782935053614697 11 39 63
-0.02919366658532637 -0.159646238368325 -0.2722757502803231 118 147 151
-0.8234377172256845 -0.18041567644904297 -0.3274765471943109 121 151 162
-0.018230527123795047 -0.1478511788268261 -0.27646397795093813 15 41 62
-7.0044125347149535 -47.749932031233904 23.35856269472466 39 49 52
-0.5592199235318174 -26.003866138194635 -5.853233449287119 99 103 86
0.31381505187129904 -0.31383938813355355 0.9469262108536609 233 231 254
-15.181720176552226 20.030052551549858 38.37875089940034 201 220 218
-0.1511902781049317 -0.14146002992271395 -0.28932762910172777 12 37 59
-1.5224037843458995 25.71129373913009 -10.832199288918483 52 47 77
-0.686436096849586 -0.2223593066128383 -0.3012549040953938 143 171 184
-0.1511902781049317 -0.14146002992271395 -0.28932762910172777 12 37 59
-6.9365337337877495 16.91138316801012 5.414483830841034 200 206 235
1.6417080985887151 3.0615029391029234 17.091478718288933 103 125 139
-0.5480609315533936 0.3527064475566599 -0.506764072433779 109 138 146
-0.699944084821011 -0.11910515800577365 -0.3413245095713406 141 165 175
-0.9333902532699356 -0.2363520023472111 -0.31657881927625126 107 135 141
-0.14753071835750153 -0.4924667020332878 0.38754516358045143 113 152 169
-0.5647375905858419 -0.01746396653910931 -0.36887580760198124 112 141 149
-6.695338906677636 15.882156550196205 2.754388729107107 174 201 230
-0.6571888274095389 -0.10615115972455932 -0.34275781211413525 19 43 71
-7.3276646884273475 16.819956493897536 5.002120413117336 194 200 224
-0.4240206954577129 1.0771395613932526 0.3572515626500079 0 1 12
-20.979950901897833 23.71302586277995 36.31846895743185 49 62 18
-0.6571888274095389 -0.10615115972455932 -0.34275781211413525 19 43 71
-0.21220510938493492 15.191340589584366 35.731984099997604 154 165 169
3.0852593988505923 1.0294879344832375 -0.31139043964707147 64 65 64
0.21088764420600467 0.12028110162387806 -0.3591100349184113 2 32 66
-0.6958939226131492 0.11806486684751666 -0.43029220338938534 28 49 69
-2.46749226010577 -0.16022007260362547 0.9787813422504203 122 147 156
-14.214521561734097 13.670002150294103 14.925076289774841 231 223 187
0.20733857673326572 -0.11141397547650783 -0.2726280984061865 115 142 151
0.947894003650071 -0.23319364834039544 1.2429152712986815 152 86 110
3.1238721145877757 0.7492026482903401 -0.8065346894342463 150 159 154
0.20733857673326572 -0.11141397547650783 -0.2726280984061865 115 142 151
3.126060128081954 12.999341916552765 -8.3047957077979 54 77 90
-0.6829829725262284 0.09134965982485482 -0.41972411717237845 7 36 66
-0.05850639901291007 -0.3705293290849411 -0.19586914374716374 19 48 74
-14.612890519425154 17.21420273209252 -7.8840228046145935 255 254 228
-10.22232255114761 42.11437185480051 77.40538794321436 1 9 17
0.2407502332786302 -0.1124608237699487 -0.269111401380829 116 143 151
-0.3231419984070142 -0.08130725288068849 -0.32575652087541956 20 50 76
2.7649244702180904 0.4975912797965909 -0.2970776957396618 82 110 123
-0.7969132715203755 -0.03263829004616087 -0.38219115404509646 13 46 90
-20.176231599321728 -50.18323727046142 10.737153482920936 154 162 165
-0.6794521917028178 -0.056906434192688427 -0.36156155226777825 15 39 67
-8.089230499770885 16.84975709730264 5.003858294568712 175 203 225
-0.29355950444251583 -0.2526901660973961 -0.25929957464021547 122 153 163
-0.6507363318858692 0.2336176410515386 -0.46973831912181174 108 134 143
-0.5641031916491912 -0.05893748816499356 -0.35295084727915554 14 39 63
3.0749997094515797 0.2059464962954592 -0.4000437387114382 113 123 125
-9.145140461469966 -47.23745367811519 0.30231450044780017 74 77 58
-0.5641031916491912 -0.05893748816499356 -0.35295084727915554 14 39 63
-0.6419645687436152 0.19329758282902854 -0.4548377189205694 24 51 72
-0.5259054749509643 -0.058119035584428824 -0.35012639065070833 20 43 74
-15.331208385074024 21.841977118853883 5.411576896888407 158 183 200
-0.6367445329246563 0.3600765207108061 -0.5168497288100582 13 39 70
-0.6587606583161645 -0.056840594757556345 -0.3608543054840227 15 43 63
-0.5083862214494501 0.31230859329083704 -0.4896841513929402 10 37 56
-0.6630996512723041 -0.04520232481441447 -0.36659204385484034 148 171 181
-0.6396723374066807 0.2192455791859984 -0.46378081791468756 14 40 65
-2.798879012878659 -0.5874743148264447 -0.3400581377606426 128 162 207
0.1994355037613129 -0.04641662574689828 -0.297706974931737 14 44 66
2.2510234664112874 15.564271169384094 -4.843530872115005 59 61 74
0.1994355037613129 -0.04641662574689828 -0.297706974931737 14 44 66
-12.645308609522365 24.794113453516125 -10.322081214875949 71 72 66
-0.6703416477880978 0.2073008040413158 -0.46124247353578596 121 153 166
0.2554511874831901 -0.04700742385179102 -0.2930032722121586 10 36 68
-0.5162547569707254 0.13296359660491702 -0.4224104127591102 26 50 73
-0.5067089843470156 0.36715529277441084 -0.5089585210000278 11 38 57
-0.5632244074846016 -0.033173905839137485 -0.362508785963036 18 45 74
-1.8366164427645044 26.377556735028335 40.108389588895214 0 0 2
3.079951697914989 0.33815610284926056 -0.4359381897892388 95 103 106
-0.5632244074846016 -0.033173905839137485 -0.362508785963036 18 45 74
3.082873857346653 0.09164305221831015 -0.5033355633453906 144 154 155
0.22951444331576604 -0.03393134915698076 -0.3000300796342288 114 138 148
-7.112400823196327 15.887350677169616 2.297002856226911 177 207 233
3.071698014164705 1.5551886780026276 0.13170339128102915 102 102 102
3.06060460355839 0.24994541969956285 -0.18492476754253412 93 102 101
2.438799974883269 15.035893604525299 -6.215324328973706 47 51 78
0.22951444331576604 -0.03393134915698076 -0.3000300796342288 114 138 148
3.10583080550725 0.7947266616782326 -0.6026509425580782 128 132 131
-1.100188313193052 -0.013728629689874428 -0.4128394518449212 15 44 73
3.0825979644782695 0.6214153096265539 -0.39377943188477976 97 102 105
0.2161441773314943 -0.21837876802893932 -0.23162547465243205 115 143 154
3.1727274904373446 14.519628159248686 -3.164387997467508 52 67 98
-0.6505729917312365 -0.008945414749612524 -0.37857350613312696 22 43 64
-0.6902217139606568 -0.0057374325460561315 -0.38257814213931846 13 41 68
-1.3496814775371144 0.5407932361242543 1.1208476622475356 23 47 91
-0.6397608418476639 0.2451515648593292 -0.4737651679201751 18 41 65
-0.5229632204281311 -0.003062078096573606 -0.37078301508041234 13 34 62
-0.5065510540835453 0.3357874561813291 -0.49734562256036985 25 47 67
-1.0580370288350947 -0.268109672308954 -0.3149470155448196 19 39 63
-0.5230259025619793 -0.003094870090871893 -0.37044854781685826 13 34 62
3.0979498612673493 1.101529483058901 -0.45759327413021367 152 158 156
-0.7852082260779027 0.010289243369959955 -0.3971945142185176 17 46 85
1.6608953006264104 -0.9955321796011963 16.265293966685032 63 78 85
0.2314991661972222 0.014843587644590261 -0.31822133556678395 110 139 148
3.0792087179100776 0.056634552738813126 -0.4753432020771149 122 130 132
-1.2045565846446697 -0.2728030704563523 -0.32440268325148125 119 151 164
2.2358102718825417 -6.6892848543016985 7.04932984435348 99 111 124
0.2314991661972222 0.014843587644590261 -0.31822133556678395 110 139 148
-0.823427972005766 -0.25113891814408335 -0.30038812380896907 139 167 174
3.0597957842620707 0.038162334784460406 -0.27190856738456476 98 107 112
3.028701078303228 -0.8601689846382056 -0.06519688407499147 150 167 177
3.050876310671358 0.04641368949843366 -0.16599434705865718 102 112 114
3.046268407740094 0.04703828660779491 -0.11199569580065705 98 106 109
-20.222907438534886 -57.23490229564517 -9.444616099825856 148 152 135
-1.8716024698342788 -0.20901900238014703 0.9158784026119815 33 49 80
0.2530882937379673 0.062308844262838836 -0.3342324006596763 110 141 142
2.931299069000135 13.937315170341279 -7.55467747299172 115 135 162
-1.0775905543875566 0.8632421598946695 -0.7347718903935893 61 80 95
0.25283454870627436 0.062369151176920934 -0.33374602110868673 110 141 142
-0.2768337175771698 -0.234286267051438 -0.2643632180308984 11 36 63
-1.1971993324133494 0.07392117976399809 -0.453384339167595 116 148 160
2.3838223556579012 14.96947526451996 -6.481956619268502 45 49 72
-0.45672012640696946 -0.29888296230051936 -0.254284485048187 12 40 78
-0.657202134203082 0.07851491886191886 -0.412246162397607 137 165 177
-15.176117010946482 24.937854718728516 55.8609844074758 53 56 40
-0.6563096485611067 0.0785769708402212 -0.41206936302306985 137 165 177
-21.532134156061808 22.42625625237326 6.063738216762323 7 4 3
0.23770341225461064 0.11746560144610091 -0.35657970023232427 9 38 71
3.073663525822947 0.4324724013736849 -0.3449195667738902 107 115 117
0.5068625008234202 -0.32012801527340884 0.9357822317011124 113 150 159
-0.6738847185562715 0.07909838696915861 -0.41335812507200065 144 168 179
-1.2004033604921716 -0.20421522633589162 -0.349294752647234 110 140 150
-0.6738847185562715 0.07909838696915861 -0.41335812507200065 144 168 179
-0.6825314989391553 -0.10813970869307227 -0.3436536837251951 19 45 76
3.0815453462446714 0.9803877916993048 -0.27402710234914734 53 52 50
-5.115616643838381 14.223609533312626 20.802233345062575 21 28 34
-0.951222256669789 0.08732531669083321 -0.4378981994414684 121 143 154
-0.6271771033012373 0.09147897345770989 -0.4147775994221261 20 41 65
3.015367566595942 -0.792952323263669 0.09832918763006271 131 144 153
3.7939058005382806 -14.862016609461136 -35.197523524624 12 22 11
-0.6271771033012373 0.09147897345770989 -0.4147775994221261 20 41 65
2.385745200925929 10.202501627210994 26.97518973879204 188 205 223
-0.8087980722608596 -0.2703334954326146 -0.2927637417947211 121 141 146
0.20685378495992007 0.09871649827816786 -0.3491277464361253 5 31 52
0.22221921872928538 0.10751595483680554 -0.3543573048166395 111 139 151
-1.1958721686470943 0.26827974860837855 -0.5063898839309061 22 38 57
-1.1895778317370633 -0.2627647685038678 -0.3253702750211552 3 28 52
-0.6958423426017878 0.11811989670516843 -0.43091433525869305 16 39 62
0.5673477878120627 -0.5968469996180417 0.20066542939911425 130 160 170
0.266512201688537 0.11967052609712692 -0.3546609346491541 16 42 67
-1.2492870727176526 -0.2605764239694907 -0.33020243781663444 5 33 54
-0.6902479511489805 0.13202437471059902 -0.43431984211599994 134 160 170
3.0522642956269315 0.13351047362449686 -0.1441681706393999 97 104 105
-0.74292514928186 -0.03980454012031259 -0.36539954737471647 123 153 161
3.0666524032596487 -0.3022287559903509 -0.407920470151978 125 135 137
-0.5450581717415633 0.14689386664362364 -0.42853264410325775 113 137 141
-0.514822481124918 0.1589688342670182 -0.4313068903750471 18 38 62
3.0917499282500303 0.5358124081235578 -0.5272904200011173 131 137 135
-0.5616341611624239 0.1848377804202565 -0.44463385245946935 19 44 67
-0.5234075127894132 0.19789102106582507 -0.4462400710525414 117 139 150
-6.802562509295174 16.1375309425923 3.4522831804852436 167 197 225
3.089089395668563 0.760115129245399 -0.4296479311579111 101 107 105
0.20232375771352046 0.20327770634193632 -0.3919906503890493 62 90 102
0.48786211579771016 17.847972073585606 -9.584701037422434 100 112 154
0.22412230051126503 0.20179902961905904 -0.38906255173275 17 41 65
3.0929920474619936 0.7835843017148382 -0.4751405248655347 122 126 125
-0.670476985573991 0.20731353705411903 -0.46129125022100703 121 153 166
0.2836502981466931 0.21043284375495253 -0.38701170408085395 117 149 159
-7.290910432202618 16.821899475373172 5.111097716535491 171 207 231
3.1039591353248217 0.9278314072050987 -0.5578059871881222 131 137 135
-0.6984657311446226 0.21991865620753304 -0.4688829903097095 15 41 65
-0.6929082504316219 0.23392630599009734 -0.47291344348049913 132 164 177
-2.592183028181599 0.6800455734026138 0.9794800890984579 93 122 139
3.03157041981614 -0.7375333824768496 -0.0985404290967351 147 160 168
-0.6381336944331342 0.2841946761994548 -0.4879452244075493 18 43 67
-2.3853819182211358 0.9619888849526904 0.880103874057033 81 112 128
-2.5213475934543794 -0.6095196453890888 -0.2512591465624236 165 189 201
-0.6465726727194917 0.3205555447151197 -0.5023729993797226 138 165 176
-8.165660832993606 16.991468615075966 5.51899468317087 143 117 147
3.0512355770573505 -0.4370406218056101 -0.2541332466700599 133 144 148
-0.5442153834167691 0.3361612882790256 -0.5017722750025442 16 39 60
-22.846389801872032 16.05434936844341 9.420131092126427 178 180 167
-0.755368812557536 -0.37299974722230966 0.6270066409664246 194 210 235
0.5743203341990036 -0.531672355353053 0.3812785143137589 77 106 110
3.074188092935255 0.4145606663633056 -0.3471876189659754 25 24 35
2.1873455719141686 16.281351875838467 -2.882805589675072 48 55 81
-1.0651508917705859 -0.2817340199155893 -0.3109535258278409 111 137 143
3.0886532789887586 0.45245733094467944 -0.4998119395328309 106 114 116
3.082080553435015 0.5884557654466953 -0.39378642310362266 92 97 100
-7.242715542012287 16.57402232605869 4.470696477590392 178 203 227
2.84876022214769 0.21772601541422187 2.515370200044554 131 147 163
3.086909814578733 0.58751389129545 -0.45727392654808274 131 136 139
2.429869870763839 16.358509704054942 2.035812112135493 10 17 24
3.0955419880468518 0.5886122853979502 -0.5548966805274781 94 102 104
3.0351723819872602 -0.860873138176451 -0.15645302174004683 152 168 181
3.1062653319516906 0.8260615147152103 -0.6164542020369692 34 37 44
2.0238456176470754 16.076852592852337 -5.026949128966269 195 217 227
3.097767573307644 1.2325147701388541 -0.3661791418563631 67 67 65
2.0042390624895456 1.5580060452219513 13.11093390442201 93 115 137
2.912875184383701 -0.6201032865310925 0.1308328218358541 92 116 121
3.1065251972190153 1.2339104869961055 -0.4791174835778814 30 32 57
2.4579715553991743 -0.48692876328379486 0.03778454032756651 88 117 128
-2.508189883465946 -0.227739500496505 0.7837276898280154 59 72 106
2.6644426838710027 15.471202363347468 -3.525284443675361 47 53 82
3.1084334872521446 1.3757255818930774 -0.4281102560773441 164 170 166
2.6307751443320773 15.495978266087613 -1.7893939006074882 100 130 168
-0.0718648358562898 -0.30827306126711346 -0.2205913712823257 6 34 52
3.123361759878045 1.6485208075849358 -0.5300351486020766 165 171 167
2.975447441010108 -1.025449442620408 0.448684811750784 139 161 175
2.4627715087649094 -1.4849623307350321 8.249080919367934 182 199 215
-1.1705421776391078 -0.2835553563421598 -0.3186302451807385 10 32 45
-0.20512026218097354 -0.29541670026389377 -0.23575028419196914 15 42 74
-21.71598727560932 22.95873220288852 6.372460626311229 130 132 118
-0.9290413662571521 -0.27529993295548477 -0.30115222225057237 123 156 171
-11.215304039161957 -45.58386929338508 2.9633840293415843 43 53 29
-0.41575717077517976 0.9321060831008715 0.6034062184496252 0 3 16
-0.6478904572345225 0.04125656005911299 -0.397250948697744 8 32 51
3.0689573016951512 -0.2537968858744598 -0.42652030224382875 124 134 136
-0.8233433707699527 -0.2510168366989029 -0.30130533707350093 117 146 161
0.22943047028205305 0.015108885699498142 -0.31897031206049176 120 148 169
-0.547555243432399 0.07097959322846281 -0.4010347286047897 123 147 149
-0.6649140250282329 -0.23384511009488962 -0.29393524528058024 15 39 65
-0.6865851890995591 -0.22254659212587652 -0.3016507289094444 143 171 184
0.2480939145773456 0.10831994987934057 -0.3517063191719865 102 130 138
-0.5312076624909594 -0.20952115238974278 -0.29341949990228045 29 54 76
0.20247688133684788 -0.20408652790429294 -0.2381802702548118 5 39 74
3.0579206303391984 0.18416467589634067 -0.19982155666858453 107 116 115
-0.5728171399977953 0.15997973744809518 -0.43623998639605 7 32 56
0.06549709085190374 -0.1733322932301958 -0.2599427798260898 7 38 69
-0.5482641564540663 -0.07345271448283733 -0.3462921250899236 116 141 148
-1.21655796564055 -0.21192383907483797 -0.3484099932896492 5 30 52
-0.5237529728672485 -0.03592895470248664 -0.35765829190599324 24 45 67
-0.5465005025046419 -0.11137865393913954 -0.3252903504482736 70 98 112
-1.1780400462397842 -0.004247971298709963 -0.42317965058389073 17 43 70
-7.17478340622357 17.021777973989778 5.7324072240775585 116 100 124
-0.8504953158810564 -0.20819992051981775 -0.3219679216635569 12 43 73
-0.6829829725262284 0.09134965982485482 -0.41972411717237845 7 36 66
0.31306298782706576 -0.254722425075553 1.0959259160773975 111 143 154
0.22263324240889906 0.08940846618103881 -0.3464888343742855 115 147 160
-0.35496148865972477 -0.11874587232553299 -0.3163122384867161 123 156 163
-0.1536503744879542 -0.4559981295718153 0.46925771135406635 124 160 178
2.7021416553979756 0.7546809592079468 -0.40049912910074054 24 38 39
3.0500327059986216 0.08918339211416954 -0.14518761828251137 113 121 123
-0.6700803446116003 -0.19405636109056867 -0.3121962474292285 119 144 149
-0.6764982721614944 0.10700386923251393 -0.4253267276106396 140 170 184
-1.1810212872721417 0.17652802674011997 -0.49304058984367416 31 55 77
-0.6790784063646471 0.10866069849490256 -0.4236246350409216 140 170 184
3.215309601499755 1.0730427865270267 -1.621882164736216 85 90 93
-11.284401554636522 -47.79382665814726 -2.087874756848179 23 31 16
0.41924319935419196 -0.3124187967549334 0.9546773613322634 112 145 156
0.21045641547741709 0.11981630461385517 -0.3587989450645317 2 32 66
-11.170264884218229 18.85720367939007 6.3677010633806415 152 154 151
-2.225409474700635 -0.1620436389351874 0.9920711229524783 53 76 107
-0.7012933035502352 -0.1696838873203565 -0.32231890723848683 123 148 155
3.089524280745653 0.1819788826215437 -0.5914230868834655 45 46 50
-0.6696513471047907 0.23388180458738184 -0.47128813328387303 127 155 169
3.0852717186600205 0.047078880920234545 -0.5364743713743986 123 133 135
-0.6696513471047907 0.23388180458738184 -0.47128813328387303 127 155 169
-0.8620175555227932 0.0616546914262191 -0.42421788589610165 138 165 174
2.8939268180456277 -0.12445911328501774 1.7744934294336967 36 51 65
3.058089865996779 1.5144098271576234 0.12976800271449196 105 106 102
-0.5315821202058587 0.3150126043603254 -0.4907750622061773 11 37 72
3.07781861228249 0.33842916122050826 -0.4375012184565338 95 103 106
2.702976032628386 -1.979090301203346 3.9242551711406395 149 170 189
3.023047641148578 3.67771797548915 1.982533513060785 66 76 77
-0.5071624924892016 0.36722274374839114 -0.5093869635828476 17 41 69
0.5395988519646755 -0.31393632207728844 0.9720973123133545 102 130 142
3.092901387030257 0.6755805783302522 -0.5074856921075831 106 114 116
1.9234425277439526 -6.22462463912304 10.053139142954645 18 26 28
-1.0485344646907313 0.8637410226206973 -0.7330515891323466 61 80 95
3.0994430579771706 1.1022657765019113 -0.45577005742194987 152 158 156
-0.17425607809297397 -0.2905603140832214 -0.23362011654424347 119 141 162
-4.220824455115128 -3.9614172976555526 10.44701671928121 66 75 74
3.0286009244709673 -0.8876324683138131 -0.08037322186554319 66 72 75
3.028064317196879 -0.7554712469157641 -0.04451415637562428 150 164 175
3.0145990213317058 -0.6165710368143664 0.12520664960198447 105 113 112
-0.16300301194588687 -0.29898623811348113 -0.23109738211283332 15 38 72
2.453886697008325 -0.655570951520247 7.242133906999513 60 75 94
-0.5341922332383965 -0.04637302952330677 -0.3549110391105194 120 144 153
-1.202303417188561 -0.21775231844394247 -0.34313491649238065 118 151 162
1.3007991986375542 16.97763636379594 -7.467435897746885 56 49 70
3.0348522396373254 -0.1168729871830966 -0.06250277354148004 109 119 121
-1.2341128169405737 -0.005922411180762255 -0.4257462114886781 2 29 58
-1.2065517458145096 -0.024129016848067175 -0.41631421731117724 111 144 159
0.2539147351901633 0.09800369406336262 -0.34833123444148456 102 132 142
-21.885845840702576 24.738124503624796 38.117196112596865 161 194 211
-0.8412233924357226 0.009568529312545204 -0.4012150080460861 10 39 64
2.757824328184552 0.14532060620375525 -0.15890804492336047 4 23 56
3.0017668938045294 0.1762553725388159 -0.14999310213829953 49 68 72
-17.736054383968384 -57.68577117611224 -11.176886880574093 32 39 32
2.750480375314049 0.08723206869889388 -0.14532454560762836 1 24 46
3.0849679344708627 0.23215099981655496 -0.5042776813715986 114 124 128
-0.6623674067296483 0.266135360843061 -0.4823496495652084 135 164 179
-7.378475326298146 16.644542060123054 4.679457697661121 130 96 121
2.7443807398832645 0.17305632154329786 -0.17718657526751758 0 23 51
-0.6748304495290547 0.28101891805264256 -0.491010094149125 6 35 68
1.9479526259992535 16.065966741567934 -6.561183639120225 53 55 68
2.7570115678866314 0.3573673686132772 -0.245756434919623 36 63 90
-0.6855384089107723 0.2762804686817272 -0.4891229923235157 120 148 162
2.7669062896376913 0.38499636955903804 -0.25234771201204675 75 102 123
-0.8211762429368966 -0.13178045494665813 -0.3454982505779858 129 162 181
-6.833650695704372 16.446934052848093 4.207033936124295 184 209 234
3.071546948687781 0.34413426175583706 -0.33928025974365894 135 141 139
0.06925493311822571 -0.08946141247171385 -0.29107179046822895 10 40 74
-0.8007725894657992 0.10356523410624863 -0.43271975975008004 7 42 82
-20.22661056173254 -58.74834759949241 -13.849768191511663 129 129 108
-0.5383505487891186 0.23921808127617583 -0.4623179878113051 117 148 153
2.2058776081454763 -6.477127479029042 8.657752450510984 73 83 92
-0.8423697197546466 -0.17142622874308777 -0.33203326384928133 158 177 187
3.096144965203398 0.25330163613674306 -0.6200145127956249 123 133 135
-0.56113681205792 0.3682600252889051 -0.5147687126751378 12 42 70
1.7209780659928848 0.16275404786979591 16.097844075864096 90 111 128
-0.6737305254785536 -0.11703683765590975 -0.3386503323712609 116 139 147
2.7522969048082264 0.43796640703374456 -0.28257818282960284 75 102 121
-2.3471118640922475 -0.3615010190480784 0.431305467821939 62 83 114
3.088829104624791 1.0793377688003676 -0.3302076249366444 150 155 151
3.060885394116417 -0.12869993788519973 -0.32525682495621516 105 115 117
3.0013283571480325 -0.8252181539612339 0.20403346257936206 137 153 166
-0.9521254438662609 -0.25749339222319256 -0.30450219943947293 123 158 174
2.723957706591034 -0.2602201533128688 -0.018081902765472724 29 55 78
-0.8209345661160543 0.0911323298924267 -0.42997825272613227 11 39 61
-0.9408483080032564 -0.12141040353535823 -0.3597080831037611 118 153 168
-0.8069814682370114 0.06742557691600576 -0.4183359793682886 123 156 173
3.0936364168448813 0.9981726220749122 -0.4592811545544374 148 153 149
0.23470062193917696 0.15045011247012458 -0.3676552122434379 111 143 154
-0.7161395981242084 -0.1569268174717204 -0.3292229403931577 13 38 60
3.0567597563078537 0.21347820601093037 -0.18676274777185903 107 115 118
2.9606083121581315 -2.078590719236293 0.2569353247873317 150 167 183
1.8065963935072482 16.656790893798906 -5.055156367784205 54 54 72
3.0821394977639223 0.2515607189945215 -0.46924206454634854 121 132 134
-0.2577151667031498 6.235547623736481 31.058955095324087 34 42 44
2.7347622187920924 4.848457826346196 5.224000369915515 211 220 222
3.0729836100967667 0.3104292630362214 -0.3304107836309275 121 129 131
-0.5200747254309279 0.3376640164880538 -0.49794293879166085 14 38 67
-0.18984363650835753 -0.15456123081994652 -0.2886326546232832 122 149 161
3.0375958497595423 -0.885885467015452 -0.19557474103404648 139 157 169
-2.1924236286460177 -0.15123814114077141 1.0318336271503963 68 82 114
3.0243401985533236 -0.8167808881403346 -0.015853661115373008 143 159 172
0.2984098809175776 0.21696657981682166 -0.3890194236141349 6 33 48
0.48780545949330745 -0.2943542735476317 1.009568205235291 110 139 153
-0.3167107435853343 -0.4102972125845672 -0.2004920419734959 14 41 70
-14.396902913081727 13.767810385097517 14.064647181192456 227 215 177
0.7642630855360524 18.322656663650413 -5.229963579577769 60 52 68
3.105224271679462 1.2208971321952613 -0.48216482297478624 168 174 173
0.20482494713859642 -0.4188280204801156 -0.15615234526360922 12 37 61
0.07215604118474034 -0.34988794265835166 -0.18949322265084034 120 154 164
3.021380433235258 -0.3108221146564489 0.02862947081835454 35 49 50
1.7121235311732796 -5.895481636257296 11.012824612859777 156 156 146
-0.04372352116597262 -0.29380892080436954 -0.22181596141461535 130 153 175
3.099526886090294 0.8361449188943822 -0.5426228933691523 123 131 133
0.08489864842347619 -0.29814263076509523 -0.21004741598026722 8 29 56
-0.5663896419181477 0.3532418009027769 -0.5067626272002085 17 42 72
-1.7262335913315434 0.9054475120817657 0.9555071201532503 30 52 102
3.003712738905008 -0.7724672198075507 0.2135929219570375 14 21 27
-0.43229775933070264 -0.18786079218198198 -0.29063968395881706 124 157 166
-0.17255920757044252 -0.11722861090767689 -0.2967820147771342 121 155 164
3.141379715973372 1.0577984495756159 -0.9170531895478716 181 188 188
3.0328929966895486 -0.21729043113961893 -0.01726230102724824 111 119 121
-0.03591107131132234 -0.04892621036654507 -0.3120833172211637 118 152 162
2.9976823423826287 -0.6896639394899318 0.26512752758133273 24 33 40
0.09636586999099969 -0.05083438468867507 -0.30051525125931405 115 150 160
-0.03015646825738607 -0.14856991575211478 -0.2789252686769425 117 145 156
-0.16757698335412138 -0.04243432585111309 -0.3249816946345951 119 153 162
3.063954678671202 0.3490963673993901 -0.24188435655619678 115 125 126
-7.329010019629874 17.218090197687655 5.977844247384997 108 95 113
-1.2149833115474267 -0.03460741582128757 -0.416088932374701 111 138 149
3.0930560596125622 1.167209560381162 -0.372547501980566 151 157 155
0.20317942203510148 -0.35167981450563374 -0.17817092886956842 125 162 171
-0.5698758144761821 -0.39978381618058834 -0.22635263922211785 119 146 151
-0.3189243250329795 -0.3393161716215579 -0.22414257557316486 127 161 171
2.993006650870255 -1.00577406893746 0.26925631926990556 123 142 156
-1.1420497553032443 -0.23955367862162352 -0.3370025905839207 115 151 167
-7.819404255355438 16.897944325507854 5.3738802328410635 167 201 224
3.042738517793333 -0.3525735134348046 -0.09220921453656572 102 112 114
-0.37530512280449746 -0.2601795871124647 -0.24951355862346364 123 157 164
-2.0383539964008603 -0.3102927600963548 0.620427134882297 73 88 124
0.9432182219305215 -0.5341831824194715 0.43160840740283835 11 29 41
-0.6176314768479593 -0.23804808821905726 -0.2926081339462207 137 169 181
-0.6980459191478859 -0.2850072787911861 -0.27958682358863934 122 144 158
-0.48990330463957554 -0.17918301239517598 -0.302323302662382 124 157 166
-1.2184881652320219 -0.2611414217055267 -0.33134308292902237 26 51 67
-15.399924636881615 20.568112191505108 0.9613487768985673 255 255 232
-0.10343258878357528 -0.12170433598396183 -0.290082535827734 122 156 165
-7.077122260107324 16.667886458762695 4.528189530690515 174 205 227
-11.75162571114428 43.70920380246353 -6.977925454048421 194 231 255
-0.6727926494114598 -0.24556724149276235 -0.2904815583321591 118 142 154
0.16939019675622566 -0.06545804572706215 -0.2891790400425661 123 157 167
0.2377991025987649 -0.028054402441196558 -0.3030679567487269 25 51 76
-13.225468329717756 -43.007746006131626 12.362006902857539 28 34 20
0.37210180964090156 -25.277135514552384 3.466293505007511 78 22 76
3.0342136560062185 -0.8607342512554043 -0.15709281324937047 152 168 181
-0.5389188061322713 0.07437891931774926 -0.40385281261358924 118 145 160
-0.5654923218547158 -0.1333128578847072 -0.32614747395642196 23 54 75
0.2887334021128814 0.19262108428358904 -0.3761194043576509 114 144 154
2.5933317169062873 -0.25767905932754737 -0.031485433873672086 90 119 127
0.9139103473006682 0.8911668140296295 0.44041729071542357 192 193 188
-0.031145510928828286 -0.39790268162082276 -0.1840391244768223 11 38 57
3.0243230400725167 -0.980350984510728 -0.15152941229937278 148 166 180
-0.17414019694138796 -0.3565792703940263 0.7453338536647238 115 149 161
1.2289273568018555 18.160608844099734 -2.7286951441630536 37 55 91
0.14354455615507905 -0.35091944183097 -0.17351120662737735 124 161 170
-0.27992693099408744 -0.3028815137657791 -0.23888575653024363 8 35 52
2.6333599244809998 -0.2602712886645749 -0.043615882239741444 85 114 122
0.3097941244036647 0.16065629921711067 -0.3689826785667539 112 149 158
1.3206573017079268 17.70731041959339 -3.859541116090445 46 52 86
-1.0191954686042985 -0.18639589858471772 -0.33527149947024065 126 159 176
0.13418379490666563 -0.4136851825670904 -0.1699628921653063 113 150 159
0.7357393395936859 18.310113819216635 -5.449699191621207 74 57 73
-0.6751714052660642 -0.2848958911230801 -0.2771454857343132 128 150 165
-0.9929354941479376 -0.11634803564596302 -0.37881221673596 127 160 177
0.22956328296311077 -0.1267986101882622 -0.2567745914317269 5 36 67
2.7498899180181335 0.23798387365420115 -0.20194429865334262 84 112 123
-0.9276267876900033 0.0035827536264604887 -0.4062010984906516 132 159 173
-1.1456542456427172 0.04524275833762831 -0.42356990538878125 117 150 165
-18.028858648523695 15.843714391308756 10.044231130658993 160 161 145
2.744446435786064 0.28501268559139636 -0.2195011065616166 0 19 44
2.6557627011227485 0.06515489443451233 -0.15653820060293538 87 116 122
0.7281485812315907 -0.6037258677738999 0.20113419117437314 136 165 171
-0.724821360600194 0.17953488478148477 -0.4595283906654521 130 166 182
