ply
format ascii 1.0
element vertex 694
property double x
property double y
property double z
property uchar red
property uchar green
property uchar blue
end_header
0.1463434313074469 -0.3430060864104637 1.1056765208217636 38 66 77
-0.0752023212118583 -0.3653122343936313 1.0966551064242829 40 73 90
0.5079391126515634 -0.3159526932258553 1.0965596886648075 61 91 101
0.0130692457256393 5.3955635487516060 -1.4585955229188170 184 202 226
0.2377562491244939 -0.3423515432716390 1.0882084201249238 206 237 255
-0.2724203571639143 -0.3081989383712188 1.2798094459829021 124 148 158
-0.0690448473762100 -0.3721047200915436 1.0781054591125960 127 156 170
-0.6780630443517648 -0.4318198072650254 1.0580855342346902 115 142 169
-0.2756674113216080 -0.3956479123880848 1.0645224193363094 129 162 171
-0.2746273349590515 -0.3980975787135959 1.0579358692296827 4 30 57
0.1709685351482548 -0.3584823136310257 1.0615808187563989 74 103 121
0.0310070802334372 4.3987788051593641 -6.6216157529130948 150 160 170
0.1725890316899611 -0.3639946238199242 1.0455999842194776 56 84 95
-0.7903503069850759 0.2454981103836623 1.2627947898483816 86 82 70
-0.8264413661017259 -0.1965327543590762 0.0112865314715902 173 187 190
0.2689027171847277 -0.3563126753414219 1.0497874573005421 61 89 100
0.2907355460212359 -0.2116564334461044 1.4033518176756072 161 186 216
0.5830270037606006 -0.3339964407053842 1.0376148434254671 126 155 163
0.1749385137034354 -0.3728949616963243 1.0254139602808334 68 104 116
0.9653265974475522 -0.1709781859164195 1.3679662222198949 93 109 109
0.1749385137034354 -0.3728949616963243 1.0254139602808334 68 104 116
-0.2762835318456728 -0.4164921261275296 1.0141102724924791 39 73 85
-1.5212747848684396 11.4455725448445857 2.0948090385487772 33 32 37
-6.2571233117674954 18.0981631033065256 -3.0770769638622495 178 219 251
0.8812176040317836 -0.1921447684115342 0.9410372840186854 91 118 129
0.4124404763991188 -0.3113932914956060 1.1275369098391288 153 177 187
-1.6482428875412802 8.9813052811564145 -1.8937830029993357 91 100 131
-1.6608680488791736 8.9087490168124521 -1.9624463121371860 41 42 63
-1.5319610920344919 8.6588801736662830 -2.0664505573725975 39 34 56
0.1746273057932433 5.5518609448564629 -0.1520403349160779 55 63 84
-0.8283175821184438 -0.2026841160973916 0.0090690125019166 57 70 78
-1.3022925401279368 8.1603129210002354 -2.8497184559272868 56 49 67
-0.0405009470790659 -0.3174462949094349 1.2067769085721705 121 157 171
-1.6609337729015639 8.8081752284673467 -2.1840642992170625 43 40 61
-1.2534212559824962 8.2595491006974342 -2.0521466522736427 62 54 69
-0.1706372876267434 5.4623329257595454 -2.3276075357773602 51 60 99
-0.6300087837441101 6.3239477266723565 -1.1848751968986169 68 54 77
-0.7519406985128048 -0.4398734262908415 1.0524817166017357 31 51 88
-1.5026626177527316 11.0370101440105159 -3.4500607698796584 70 58 68
-0.2773754744039403 5.8797998070606701 -1.3382476081593562 194 211 227
-0.3060072093096197 5.9174271911721785 -1.1750325032419233 57 61 86
0.7058820037940688 4.0049782511695771 -0.4430614021978779 72 73 77
-1.8429509069459467 8.7770553468755264 -3.3847482127187951 175 191 204
-0.1928981068419720 5.7359421399119457 -1.1217047723700764 189 215 230
-5.7722736265735000 8.0373235809274153 -2.8937698975879060 82 81 77
-0.1459741772758864 5.0034947261417679 -1.0712736900785280 168 195 224
-0.0701848551226505 -0.6368722777660746 0.2899649610211402 4 8 0
-1.0496895315838193 7.8535997706513685 -2.6328601031806129 192 211 225
-0.1890407888656119 -0.3574148105405636 1.1397237860099059 0 12 25
-0.8693533266068836 -0.3852736282267933 1.2108768284300877 30 42 82
0.1859042539638517 -0.2250488496661755 1.3875610558915308 109 137 148
0.0821397420243660 5.2422213096781825 -1.3546114941915355 47 48 66
0.2875826109979673 -0.1888089205428591 1.4593158332155782 198 226 247
-2.4261999527338767 15.9125972151616590 0.3794782356246792 0 2 8
0.2875968945869766 -0.1933362462373067 1.4499697762605064 197 225 247
0.2809431802388684 -0.1967186209950642 1.4409299790237946 209 240 255
0.1765560305124546 -0.2184990734874524 1.4070991194169820 51 78 89
-0.1843121229972436 -0.2906264219908208 0.2689532003126854 192 194 206
-0.8803583186378955 -0.3397782118625332 1.3292024952645032 40 60 93
0.2843158734854503 -0.2113290782866541 1.4027091925324933 8 26 64
0.1763601413170488 -0.2219127619702395 1.4005381832132167 49 71 82
-0.0738559315538902 -0.2565217001293567 1.3653595979323230 191 222 242
-0.0513676452309747 -0.2557469570359289 1.3624331426913729 0 24 41
-0.7683951273036621 -0.3767853284300050 1.2116806994517784 20 42 81
0.1506875088050510 -0.2553951932596614 1.3213530983481481 83 103 110
0.1754798556418253 -0.2414882474046034 1.3510200717652705 49 81 96
0.1754798556418253 -0.2414882474046034 1.3510200717652705 49 81 96
0.1444342408031841 -0.2446112974768166 1.3496866819155415 27 53 68
0.4826853727316947 -0.2410830490301781 1.2869720385722341 109 138 154
-0.0541734846491898 -0.2696740679373474 1.3287241152893778 130 157 168
-0.0099630419443136 4.3225628885947112 -6.5914892345837162 140 147 157
-0.8139071429970075 -0.4390166459414417 1.0665308583153084 100 131 159
-1.3023546512788480 8.2095955918623726 -2.7097737882713027 51 43 64
0.5284704462858950 -0.2157227093048579 1.3423200601325129 103 135 150
0.5234589134443091 -0.2164242109157062 1.3387741254965739 20 46 61
0.6033526742108249 4.4456164706413057 0.4717721211154544 199 185 148
0.7504679451879207 -0.1985447303009717 1.3371302189771774 106 135 149
-0.7474470827431632 -0.3685709182369410 1.2284704151757435 98 124 151
-0.2722276178417423 -0.3147623279379936 1.2622348057276320 195 222 241
-0.2519210218346494 -0.3149790369667870 1.2579355629900066 5 28 46
-1.9072906921598243 8.8065409311046636 -3.7270112584913693 66 50 95
-0.7566649214098559 -0.3693510781168317 1.2284199410133538 124 151 172
0.6022671123140465 4.9094230450484089 0.5047079261220269 178 156 119
0.1285740786852899 -0.2880267290173687 1.2464794280639471 134 50 84
-0.8505386752007488 -0.3580850131771874 1.2762227223023790 51 65 104
-0.3212838527145525 -0.3319477908052395 1.2280949552228111 111 138 149
-0.5078397621448245 -0.2253082044559568 0.4446338481737221 164 166 165
-3.3837493847336253 5.5219898995289851 2.5281497660709933 135 102 133
-0.0331775323108799 -0.3058434095588591 1.2350740611101203 63 96 113
0.2843720885502306 -0.2113641598972621 1.4027391449672810 22 28 62
0.2224784169565547 -0.2829656962985934 1.2389732213503872 196 227 248
0.2313255575659186 -0.2816348628123632 1.2392919298671126 203 234 254
-0.9652134649679300 -0.3540070489157477 1.3094595707318861 29 39 75
0.2311413208668527 -0.2816509934816645 1.2392945996218319 203 234 254
-0.7673085882500011 -0.3482847505050923 1.2826895738997206 30 50 83
0.1743611444182866 -0.2967727007224182 1.2137092083426932 211 242 255
-0.2574412323959158 -0.3412210547406316 1.1942135756381163 198 219 236
-0.3239280084138126 -0.3412074656535732 1.1847414519581827 126 149 165
-0.8529123706611209 3.9009312163467222 -6.5073690259572965 13 37 63
-1.8122189210507733 8.8665377307003492 -3.3820294944711007 155 183 204
0.5111852078692471 -0.2713888059701576 1.2038685302286520 29 61 72
-0.1316448828808156 0.0040652725903518 0.1670842978704344 173 171 172
0.2801760610718106 -0.3088957546904643 1.1607310135848903 124 157 172
0.5466400512928208 -0.2790734107007274 1.1792624467958746 143 177 186
-5.7402782473120162 8.5858720774315795 -5.2745772959937858 69 63 51
-0.1251139003035950 -0.2955761455736529 1.2794128391697206 134 161 168
-0.0957671705221023 -0.3459041750019243 1.1485509529830169 127 155 166
-0.3417739896540106 -0.3707366182099434 1.1398183729559375 47 69 82
-0.9555120908981777 -0.3956233538124805 1.2061381281381656 81 104 118
-0.3115186445635324 -0.3721625852654241 1.1297038026003430 116 148 161
0.4501534604875000 -0.3108791200287023 1.1200764222521451 118 154 168
-0.7944471404446191 -0.4389040436720040 1.0639851277384873 122 144 167
0.9686499771954685 -0.1780851082358831 1.3451789080875118 86 105 109
0.2171261459185484 -0.3570044230381610 1.0570476868418444 127 161 171
-0.7616281471213280 -0.3590140484995247 1.2570023546991431 33 51 87
-3.5012485795000075 5.6965421528418680 2.9625560376864319 140 107 150
0.2664409551094300 -0.3620605605477049 1.0328740122351392 127 163 177
0.2664409551094300 -0.3620605605477049 1.0328740122351392 127 163 177
0.5335220580031126 -0.2992508469241575 1.1243116726390538 58 85 92
0.4598363208981743 -0.2727606779046364 1.2134176705863311 125 155 163
0.1751499657567802 -0.3758763518012844 1.0179206673472354 53 78 83
0.5883183813084245 -0.3355387319755613 1.0307238633830713 29 57 69
0.5079339308339373 -0.2052738178957828 1.3718029775518918 122 147 154
-0.7234387263200308 -0.4645084092701802 0.9883410888338009 115 147 168
0.1754336517995385 -0.3804804936999452 1.0060251684836463 44 67 85
-2.4261999527338767 15.9125972151616590 0.3794782356246792 0 2 8
-5.5458223367818720 5.6209221121635542 -2.1818348066763567 28 28 26
-6.1074323387492830 17.9571618033613056 -3.0577527514913800 51 58 74
0.2761089648370220 -0.2143991281142485 1.3980727386514540 26 42 67
-0.0800742577842518 5.8253382886557317 0.1353497027216177 40 55 76
-0.0774226097552304 5.8291502487380846 0.0853974168957950 34 50 73
-2.3714551061566334 9.9043490557789635 -1.9316127037977346 41 54 71
0.5195301515729837 -0.2571769488226072 1.2405536308219602 0 18 32
-0.0951170158188171 5.7898375005637330 -0.5370739466908446 60 67 93
-5.8298370252437506 5.6725967820937955 -0.8682626860626473 241 161 172
-1.7001889266770587 8.9909964804069258 -1.8533395780374633 39 44 76
-2.2282015730019662 9.6316986848912034 -2.1791140325593363 39 50 72
-0.2691836566509886 -0.4097754185570894 1.0299137274140504 66 91 96
-0.8077657300590496 -0.1862934211892917 -0.0185872449569477 40 31 22
0.5412220881482124 -0.3091105826357045 1.1055624216677644 132 159 168
-1.6513541124278281 8.8600564472777794 -2.2710054545965801 48 47 65
0.2625345502690069 -0.1984963404306322 1.4403947712892669 193 218 248
-0.1116161252367259 5.6657490801410519 -0.8389088247969017 52 54 79
0.0384752186775281 5.4030835154714607 -0.9501971022073864 55 59 86
-1.8219269880931936 8.8134362756880140 -3.1826059537262834 49 42 75
0.5053604615636612 -0.3207905456314387 1.0806053423547208 125 161 175
0.3354916064492010 -0.2112908053555122 1.3929287304411191 168 104 130
-0.3341675467895633 -0.3449980846361702 1.1988837656143161 129 161 174
0.4529505223855773 -0.2086313817940997 1.3770490492440166 111 140 146
0.1310640915710140 -0.2409319258023650 1.3621851449859705 116 143 152
-0.3247311774421716 5.8835266732302598 -1.2617911904847277 194 201 217
0.3427721804801555 -0.2998544365627284 1.1714407939530869 5 18 27
0.1221931206881522 -0.2632162665045028 1.3098669587982983 129 54 75
0.7721529488735227 -0.2053366634700782 1.3185650294931754 100 130 141
0.6507920844394823 -0.2438115411771608 1.2488769083703466 66 83 91
-0.3102983350891356 -0.3355830322323125 1.2200218571578318 127 159 172
-0.0653406154645229 -0.3768957778520650 1.0651589598058748 108 145 161
1.0744844802473208 -0.3263564430234895 0.9756097916867711 145 156 162
-2.1169026111320268 11.6348793537769346 0.5022318932802633 52 61 66
-1.5638911871658123 8.7996547010935728 -1.7595911703419032 40 44 69
-0.0763928777926644 5.5953870605098777 -0.9857028914220604 45 40 60
-1.1736771630822751 8.0384166813428024 -2.6564382482604008 67 50 66
-0.2008046168402037 -0.3142369721196983 1.2485521353747790 13 20 26
-1.5439954774368909 8.4190378495434643 -3.0577488229030871 44 44 68
-0.8125151532229252 -0.1942372646075527 -0.0216969911964335 205 201 189
-1.1622650969943045 7.9665156862164581 -2.8525309560969596 59 50 67
-0.1646744340583850 5.5265264470162112 -1.6117718823286191 52 47 67
0.4384126344742173 -0.2175431305334228 1.3548849705457855 25 43 53
0.1959426745487927 -0.2643165522057471 1.2903856878452902 126 150 160
0.7849290367863097 -0.1997408025682822 1.3255863591921360 96 129 138
0.1082311301209678 -0.2671291356229096 1.3008215390919800 138 55 75
0.1130749548883553 -0.2829762995818103 1.2614660268283393 144 63 82
0.1853485762879081 -0.2882733420299488 1.2293710027134443 39 69 79
-3.2826654140592488 5.6277642066184406 2.7746474627538658 188 152 180
-0.1186735682472356 -0.3091676478915553 1.1978094626768003 134 170 186
-0.1913515824349977 5.6415063022635454 -1.4327741838941404 42 38 53
-0.7905069246029189 -0.4308634151100453 1.0859586747442005 107 138 159
-0.3436304600324335 5.8909097196223614 -1.2259707795564934 58 52 62
0.5700309937511001 -0.3040240803888139 1.1130875474202242 113 130 138
-0.1128986993403725 -0.3700906718532945 1.0915662205330536 85 113 125
0.5783462054771563 -0.3257117421477163 1.0561753085439807 115 148 165
1.4713746192670334 -2.0369111714926289 -2.2077449935090954 83 91 104
-2.3488028835168731 9.8459844828974603 -2.1724450031113811 147 174 193
-0.7891255680943228 -0.1808774157641965 -0.0362213342393619 0 2 0
0.1168452679078234 -0.2933557793136575 1.2341066340480000 144 62 74
1.0648545203687589 -0.1132086376465253 0.7311417460490316 112 115 120
-0.8226055154223431 -0.1897519034006085 0.0094689704256805 128 135 143
0.4416795107488857 -0.2741477278459699 1.2122620952203795 111 147 163
0.4871361623422629 -0.3002312187895685 1.1406316800884015 126 159 176
-0.1985349330580098 -0.3192514751692404 1.2320219600684326 0 8 16
-2.0231890689582439 9.2289946568204435 -3.0936838342273694 43 44 64
0.1387138243872801 -0.3424369893372231 1.1069476958311102 135 165 173
-0.2139163348118291 -0.3214505648720264 1.2312968544810019 0 7 17
0.0884701027966459 4.3295005873632526 -6.5900738267371128 140 156 171
-3.4353386494740952 5.9360773377055001 3.5436957725991167 71 89 135
-1.1902882805065345 8.3269432676929842 -1.4128337621500739 77 80 121
1.1066684596785470 -0.4422725409912121 0.6842923136898225 100 101 103
-0.4330422672163679 6.0511888387556745 -1.2725245447215348 69 55 72
-0.7142046321085639 -0.3184543706279801 1.3476544484539661 50 68 104
-0.1142613145251635 -0.3388149098865851 1.1677283102062763 128 157 165
0.1465125398388386 -0.3042991183610411 1.2001138270459664 110 143 158
0.6219078164041736 4.4798423409785846 0.0073081904540668 182 163 121
0.9758229061442754 0.0889569213338639 2.0106984226223630 157 167 176
0.6791123869455059 4.1466880012424712 -0.3064630359037839 208 188 155
0.2032218676632929 5.4337659539509113 0.1402513427800571 89 128 171
-0.6601259374928228 -0.3308441912116418 1.3000536015203270 29 42 86
-0.6820882163704992 -0.4013537701405824 1.1367606868039086 43 59 95
-2.2417444781630174 9.6273509435704110 -2.3121961764564429 102 124 147
0.4389852475620452 4.9863375327909800 -0.4473014766208161 48 57 88
-0.3516627181965117 -0.3665587031567430 1.1486024612147721 78 106 118
-3.9961527854257843 18.0396561457863811 -6.7630116197283474 150 175 197
-1.0708737379598530 3.9369639839632677 -6.5181948417195574 160 169 176
0.3348170305988927 4.5774249368070894 -0.8379683343949260 44 49 81
-1.6672997882939407 8.9304412087745533 -1.9702807573643093 26 28 53
0.3276029893751933 -0.2555580920575070 1.2866095411355782 106 140 152
-0.1121701631220132 -0.3079141774986232 1.2465481208263260 190 222 245
-1.9922545962283056 8.8048900394381295 -4.2147956278103136 106 133 152
-0.0026257159088601 -0.3124550429568823 1.2111425281340238 0 9 25
-0.8531073584261533 -0.4207055159127334 1.1245917037840627 51 70 110
-2.1041329426638913 9.1822938194246806 -3.4608667097357748 17 35 49
0.2842674357475149 -0.1949383863771259 1.4458886860184392 62 88 101
0.4901602946209202 -0.1926799090747689 1.4092735939651180 43 69 82
-0.9649481966043104 -0.3876627729628451 1.2267615062667359 73 95 109
0.4901602946209202 -0.1926799090747689 1.4092735939651180 43 69 82
-0.3037225274010770 -0.3390193335006035 1.2106501251485473 49 73 83
0.1220296071235416 -0.2455307071648027 1.3523276769342827 112 140 151
0.4845722789920587 -0.2077313852626733 1.3705130735730437 110 140 151
-0.7519958100273780 -0.4093203792452217 1.1271405554574692 108 138 166
0.4508618637700731 -0.2116269941295782 1.3684088304343156 106 134 145
-0.2785631615109958 -0.2828769566267711 1.3426454376305772 122 151 157
0.3832016085860127 4.4094894850943600 -6.3453945419054216 0 5 15
0.0073255551465611 5.3934184173751962 -1.5253533509411303 57 54 83
-0.3262823306727577 -0.3013932360738071 1.3079597632017597 187 209 232
0.0108653107701050 -0.2702591634754704 1.3139928539185080 0 12 21
0.2201828062322325 -0.2511474847478555 1.3179361987356548 33 56 64
0.0000177515327427 -0.2769819283097182 1.2991312373446720 0 8 18
0.2039416499562166 -0.2639286936781181 1.2878630962851538 122 150 164
-0.1251139003035950 -0.2955761455736529 1.2794128391697206 134 161 168
0.5780534787031887 -0.2422228488990185 1.2650147483694278 37 61 71
-0.3195058506924083 -0.3293395094322112 1.2379265459182132 191 211 235
-0.1329539322084579 -0.3217987500007115 1.2166564744535691 68 97 105
0.5179627155686850 -0.3007597420223178 1.1252842141574597 132 165 172
0.5129972320337832 -0.3195308053317269 1.0843528128924687 137 165 169
0.2330101968347905 -0.2896169621101609 1.2237957121799967 124 151 162
-0.1238300223990472 -0.2866183492456232 1.3027829569921978 134 163 179
0.4879051166816366 -0.2651879015412260 1.2268741980816269 127 151 161
-0.1098433268286053 -0.2270134784813372 0.7817298422370959 182 187 193
0.3389532431997577 -0.2840239475309126 1.2116812781591251 4 22 24
-0.1160842647740394 -0.2306393005995584 0.7236523442970644 186 191 197
-0.0087989515517154 5.2662317895365733 -1.8871224810898448 37 44 70
0.2423279200044881 -0.2948592038794046 1.2025630221336221 130 157 164
0.0007674045963136 -0.3239915453519867 1.1822028988321336 6 24 34
-1.2062988050276551 8.1503270772662315 -2.4646291042922033 174 192 202
0.3264464355175579 -0.2961379303962063 1.1835127762366466 5 20 23
0.0008390287037302 -0.3268644416682039 1.1757196643241568 1 20 27
0.5416044814690335 -0.2800364532397710 1.1763347116214959 33 60 67
0.2080589278300722 -0.3298668933858151 1.1246350538163465 87 110 118
-0.7503427068370853 -0.3973761316157531 1.1579994660954622 134 159 181
-0.8511517085470538 4.3079475721694616 -6.6251530301690504 120 125 128
-0.8210298725366568 -0.1980581701985986 -0.0042170576375569 208 210 205
0.5353403026692906 -0.3035523949528239 1.1254933389776138 133 156 164
0.5412220881482124 -0.3091105826357045 1.1055624216677644 132 159 168
-0.7417731155110657 -0.3703217566919321 1.2220815798656459 30 50 83
-0.6967547723775710 -0.4126468040307811 1.0978178290209619 107 138 158
0.2376912780158163 -0.3422951069170802 1.0881575872099187 197 222 244
0.5701926766462151 -0.3138047714471399 1.0920989939239927 144 169 174
-0.9516496577223867 -0.4307602294464373 1.1172248830990517 80 105 125
0.5588584055851618 -0.3145692905804376 1.0906146937436454 63 85 96
0.5760965709147085 -0.2628477672811197 1.2097939957858559 119 149 157
-0.0647889840188073 -0.3719922241361496 1.0760581885601999 40 64 74
-0.0692522907917305 -0.3742723952944668 1.0721475497824315 121 150 164
-0.2745633662738657 -0.4078927726251688 1.0297384685726738 122 151 165
0.2623225436652142 -0.3624703235333900 1.0291066078905449 31 58 67
-0.9260848104740247 -0.4146863812891663 1.1514993690318969 32 41 82
-0.0571980217709962 -0.2565091563262345 1.3620257061116576 127 156 164
-0.8615961641596607 -0.3560049765123498 1.2817357954771984 111 140 156
0.8084465957768624 -0.1776972819956397 1.3745834844294165 98 121 129
0.4268373215337212 -0.2184780408474057 1.3548553777524415 5 25 36
0.2890803582327665 4.5972195142326919 -0.8184359222678067 40 42 63
0.5234828390510097 -0.2165396623970402 1.3388621242071277 62 80 84
0.2007345720936728 -0.2494756620124204 1.3253303539466788 65 82 90
-0.1124989147096371 -0.3078278361325600 1.2465234592751568 199 221 244
-0.8483172995237047 -0.0732606744861295 -0.0042179520799753 168 154 109
-0.2023352829328983 -0.3191226477716148 1.2362902614939484 124 151 158
-5.7528598273151603 8.9735773208773590 -5.2507596998858288 65 57 46
0.4124404763991188 -0.3113932914956060 1.1275369098391288 153 177 187
-0.3270909298466166 -0.3058931541275330 1.2957238731229450 143 170 177
0.2808147201528527 -0.1888214769400579 1.4610478057334728 61 80 97
-0.7511863010785389 -0.3931316109014274 1.1688776103897935 120 148 172
1.0215258419290831 -0.1143165739334092 1.4770756398360709 3 13 23
-1.5207679599305373 8.6561555693431647 -2.1028339253048545 192 211 217
0.3327840017254199 -0.1946349018581506 1.4358211762421431 114 50 74
-3.3351494037372040 5.5397621034257574 2.6152516333783176 138 97 137
0.2600224187442618 -0.2044733439530013 1.4257679573989310 34 47 53
-0.9461366137093004 -0.3858599092908866 1.2255695654083270 72 93 110
1.0271402590861614 -0.1300704919586696 1.4356135826253560 1 13 25
-1.7046234641684357 9.0957340949827508 -1.4119369422016250 44 55 85
-3.2187965212530800 5.5892571288648840 2.6497610310767445 189 152 186
0.8451330404267838 -0.1689594221976272 1.3895355793711102 94 117 123
0.8636471744851677 -0.1720792336758609 1.3778553274077616 42 62 69
-0.4118490895163241 -0.2286906270225524 0.4482622086079630 35 60 90
0.8634051881747002 -0.1724140936513707 1.3778544303518039 38 52 61
0.1863373266146023 -0.2527204732978162 1.3203018952199248 107 136 150
0.8591783863203770 -0.1731467951645875 1.3727883438821096 91 114 122
-0.0503582100903454 -0.2793294398437101 1.3036199926612058 114 148 157
1.0451509221410398 -0.2095388433467806 1.2352063102481059 22 31 38
-0.6601259374928228 -0.3308441912116418 1.3000536015203270 29 42 86
0.5213379762405217 -0.2691064484536413 1.2099537767191120 115 135 142
-2.1735933471000228 9.5061647183951870 -2.7054908996479656 34 43 58
0.4887833977526074 -0.2189100231949495 1.3415367600152213 67 86 93
0.8175667665308458 4.0531676113146400 -2.0231845391200460 160 162 157
0.1506875088050510 -0.2553951932596614 1.3213530983481481 83 103 110
0.1188937379125416 -0.2790271819394762 1.2691052407289338 206 204 225
0.1214651347462672 -0.2858215858343932 1.2562183490749326 118 95 121
-0.8104746385790226 -0.1865991184382566 -0.0105859555598037 78 78 70
0.2311491188141205 -0.2930714043818047 1.2112217379421792 119 151 162
-0.3307181104540963 -0.3597858437793544 1.1600249475259548 119 150 168
-0.7565121485211529 -0.4173527149821766 1.1093081832132863 54 69 100
-0.2287923369568927 5.7983327340233295 -0.9910860234073321 49 48 64
0.1865059841130681 -0.2527630506238753 1.3203438427344476 117 146 152
-0.9358710802466057 -0.4006012001974684 1.1950757594405992 67 90 104
0.2691280023506962 -0.3605818139126066 1.0371693188708204 48 78 80
0.4603003865928469 -0.2727726542758740 1.2135844787222623 123 153 163
0.4415503596200411 -0.2738812312905024 1.2120839814375415 128 158 169
0.0156753282391890 -0.3224175464656567 1.1830628861012329 121 153 166
0.5514213327862117 -0.3009572037683163 1.1161426678360964 134 164 172
-0.6922722032229435 -0.4364706310185589 1.0523576801940278 37 59 98
-0.8250127059731753 -0.1955376874919889 0.0086491703698563 154 163 168
0.3278995425112148 -0.2892575389716091 1.2006995165315002 142 156 165
0.2618380985698776 -0.2739922457352840 1.2519785126253828 34 59 64
0.2685700887473369 -0.3633507364355896 1.0234993543356392 132 162 164
-0.8271149892080438 -0.1345928300932245 1.3656615680982318 51 62 84
-0.7993660866547720 -0.4094618269982820 1.1349402490578364 43 62 95
0.4976556464997728 -0.2913551434513157 1.1566747521357210 75 100 107
-1.2985602355347710 8.3326348217501600 -2.9566655288727479 49 41 62
0.1137430986713664 5.0696787308395246 -1.7936146562195225 40 45 65
0.6710549093120395 4.2764649816005411 -1.7410694961259285 120 137 165
0.4544487561479201 4.5027554619586097 -2.1587724823389518 107 134 153
-0.0651877022213935 -0.2937283776436115 1.2711296095777407 202 229 250
0.6926640800672190 4.1079931437667367 -2.1362418112269053 24 37 53
-0.3440006301355112 -0.3145723753433227 1.2784328911139640 51 79 91
-0.0086960887349052 -0.2899011645505431 1.2688299648235071 0 13 33
0.4985662490059004 -0.1942315304444199 1.4014801649439350 33 59 72
-0.2133019534635233 -0.3099304083512506 1.2621505071615071 139 167 179
-3.4911929461543472 6.0036235336289199 3.7498479239815112 198 219 240
0.0097188442782467 -0.2985658774852355 1.2434594055193458 0 15 25
0.2436206105854544 -0.3007845943275118 1.1887385243413702 125 157 168
-5.6960632306253300 8.4908232633684992 -5.3615827935209870 82 73 64
-0.1873207163375563 -0.3756626149108210 1.0943012807463737 126 152 165
0.1658102052410049 4.6224785623220255 -6.6829006875655121 110 127 135
0.2210154946838890 -0.3408693643784038 1.0960752753286260 42 70 84
-0.3180580464942838 -0.3634435083353479 1.1505707281430324 13 35 46
-0.9136007533337469 -0.4711171592255591 1.0066241379229757 38 51 93
0.2210154946838890 -0.3408693643784038 1.0960752753286260 42 70 84
-0.4071995563450869 -0.2255606171289754 0.4358077620524717 172 179 187
0.5064885535124454 -0.3087708652669963 1.0925794414415073 145 179 191
0.5064885535124454 -0.3087708652669963 1.0925794414415073 145 179 191
0.0328637597118627 5.3279189127465729 -1.6411778138870294 199 216 232
0.6765406678110281 4.4822584229928371 -1.2327770884297096 109 124 163
0.2093961639609743 -0.3441993031648365 1.1092977451640718 52 81 89
-1.5231889029025192 8.3317784892261688 -3.3231292206663356 58 57 91
0.3318191091591360 4.8183240114520354 -1.9066487963774985 117 136 166
1.1162767837416299 -0.2235093146441191 0.1413477105979336 98 101 106
0.3568133386519159 4.7987066994268925 -1.9359780998398866 31 43 67
0.6003949847371102 4.4496697497357225 -1.8068841416433048 102 131 161
-0.1280020131998243 -0.3179985681260498 1.2252342444028275 120 150 158
-1.1472525778295677 8.0110057934930978 -3.2354032476233416 50 54 83
0.4118880110049065 5.2183659227695625 0.5807948029269038 46 66 73
0.3208553713284854 4.7667286775695352 -2.1644743849485075 40 56 79
0.1461563079060528 -0.3042757460073026 1.2000850341967433 110 143 158
-1.3618410911658576 8.2979059232737971 -2.7273900356718537 54 45 62
0.5776707345199101 4.4907495267234054 -1.7653881552088093 47 64 94
-0.2377814346849905 0.7611076669662872 -0.5111168203441879 40 45 48
0.9637000420141388 0.3789490559381606 1.6720411030951927 206 202 199
0.3754559314910571 4.5049041111339356 -2.2870086941610266 119 151 174
-1.0126333173093029 7.6689156927991053 -2.9883538187283891 42 46 75
-0.3088499175673989 5.7164273366059009 -1.6531694383498097 46 43 64
-0.8202913806613849 -0.1944405267784166 -0.0023134110623969 69 69 67
-0.3088499175673989 5.7164273366059009 -1.6531694383498097 46 43 64
0.6466470292058142 4.3367582008693093 -1.9730235862155185 63 77 88
0.3271398223755371 4.9449340772724746 -1.6240421485442798 20 28 51
-0.8621879165694080 -0.4028654981744439 1.1695494715215033 109 130 149
-0.8604239906352985 -0.4073264769222830 1.1650352150251637 49 68 100
-0.7857637685032863 -0.4134125364801886 1.1281771729214765 48 64 97
-0.6391724027691721 -0.3793156155856914 1.1835316614970401 58 82 120
-0.7892362039091537 -0.4496189308655446 1.0332071376228449 102 124 137
0.9586554737174414 -0.2121114619432913 1.2616199673226738 0 4 18
-0.9249937990568935 -0.4159934712939047 1.1525542752335216 41 56 95
-10.3656998890534862 6.3667516976380192 3.3130561433119561 134 139 142
-0.6943965846607970 -0.4323787021813941 1.0616206803817805 46 68 107
-0.7027157466887508 -0.3992907627099958 1.1446033365645341 54 76 117
-0.6819985149581256 -0.4391435016183832 1.0471314254641628 51 70 110
-3.2039066445497504 6.0120429936095237 3.6980180750884100 103 140 192
-0.0941243433449192 -0.2304561931732806 0.7451092599688528 39 56 72
-3.4809469944028817 5.9504025702872552 3.5898324327366824 180 201 230
-2.9364128215522167 6.2345732347103242 4.1206595795887555 19 37 49
-3.3821091885819956 6.1190360813916636 3.9838899669880621 166 197 225
-0.9440899833541654 -0.3448367520248031 1.3261658896190658 30 41 69
-3.4610675037556531 6.0715050387001641 3.8719762286845190 75 112 154
-3.4610675037556531 6.0715050387001641 3.8719762286845190 75 112 154
-3.3642148850934479 5.9616015415011141 3.6396289333205858 71 94 135
-0.8292308469122470 -0.1006649560387066 -0.0242960488617379 42 53 39
-3.4330020347425187 5.8097810330625999 3.2485278543464591 179 201 225
-3.4330020347425187 5.8097810330625999 3.2485278543464591 179 201 225
-3.2805792076046965 5.7967501899843237 3.1864086246254897 190 210 237
-3.2329858883936464 5.7342566041924830 3.0264479750759734 104 99 121
-0.3683940770563231 -0.2318149764127868 0.5536565496891013 182 181 179
-3.4831966798904017 6.1172139001215875 3.8124306437602939 170 200 224
-3.6035270202366889 5.6807688121398305 2.9545933890348008 102 108 134
-0.1784126557017019 -0.2181363924179630 0.5382568437036973 143 155 171
-3.4899896847862135 5.4905325971405610 2.4723339957691235 119 115 140
-3.4363922520854948 5.6863512960301970 2.9267516582298447 133 93 128
-3.5852143779548586 5.6778084851831307 2.9191904962380142 198 223 245
-0.8590888470927776 -0.0909113736036000 1.3292016842866534 97 117 124
-3.6880142125379489 5.6159585064706752 2.8471042943288478 119 97 133
-0.6954495310580086 -0.4157237500305107 1.1018151966484122 104 130 157
-3.4073090713072598 5.6525670259790060 2.8569251011906189 166 126 153
0.8228757799261294 0.2819527710070732 1.3767533681410329 26 54 104
-3.3835475279421852 5.6379895193668244 2.8136570399359271 221 213 237
-3.3150981480338806 5.6349803659153288 2.7923106843731107 128 104 130
-3.2637432966984554 5.6350481770888443 2.7562705940609091 136 102 137
-3.6269740221838509 5.5727022784670162 2.7211264186454089 128 98 132
-3.2694818925719473 5.5764643457971514 2.6444206587450263 186 146 183
0.8395217018569502 -0.1689683974830899 1.3881875395013128 41 67 80
-3.6546020559091015 5.5142774757773063 2.5957171650829594 131 108 136
-3.6092106518029752 5.4973931000217116 2.5076913797899354 94 108 147
0.2491893201332488 -0.1908110139275186 1.4667146347861253 185 215 243
-3.6875220651918550 5.4828612088108999 2.4834476969923509 185 159 194
-7.5077207069449372 7.2504103328584391 2.9561898717074420 157 160 153
-8.8374195993471094 7.6272880725632675 2.9199245165725198 0 3 4
-3.0102626580643146 6.2009194155762906 4.0929409884670944 127 173 207
-3.3984645809525671 5.8082258245305143 3.2181372723982125 89 87 108
-3.3329978544013605 5.6959247830722228 2.9419540406908951 119 99 127
-3.2811315144481186 5.7011576250068225 2.9454599056964961 131 100 134
-3.2811315144481186 5.7011576250068225 2.9454599056964961 131 100 134
-3.2100360813039730 5.6529749711356576 2.8028334008105764 130 100 134
-3.2090976357163159 5.6452518229058981 2.7575022627524484 135 105 143
-3.6864861850565336 5.5864971803015129 2.7200435143023443 122 91 125
-0.0086259474704835 7.4100952180561759 3.9104559278192355 107 116 125
-3.1175858401878824 6.1110051419342746 3.9083214270729725 145 189 226
-3.5600025072767756 5.6201315975758632 2.7730885220169350 189 213 237
-3.3106397698107748 5.5234943908229504 2.5247594085192500 140 114 141
-3.2377992504750512 5.5329347277767029 2.5276377708634175 108 93 112
-8.6929750069637741 6.8085957282745282 2.6969204859102365 17 20 27
-1.5725328531677787 8.3674786390694003 -3.3407123016915032 120 125 154
-3.1871424412454825 5.9840631090229115 3.6053822973730818 102 133 200
-3.3098151844050596 5.8032227623693817 3.2427835065168820 92 92 128
-5.5393265812372290 6.8603192584343464 -4.5681795722211902 123 116 100
-0.5543868957593004 -0.2701969412474091 1.4315303435120588 141 168 185
-3.1175858401878824 6.1110051419342746 3.9083214270729725 145 189 226
-3.1135140595735220 6.0604274482317431 3.8003066916984523 92 134 176
-3.7527822967568243 5.6478382501359148 2.9395333966874437 144 123 164
-3.7527822967568243 5.6478382501359148 2.9395333966874437 144 123 164
-3.3346046331580568 5.7310051223450644 3.0406308891300982 216 221 250
-3.2187965212530800 5.5892571288648840 2.6497610310767445 189 152 186
-0.3529520499210810 0.2453775634363543 0.6979331325136291 96 102 74
-3.4212039747785461 5.8487716467198991 3.3497821398636991 118 117 157
-0.9370144483440110 -0.4199251055366438 1.1408613985684120 76 101 121
-3.2352449195439337 5.6379943530913996 2.7794781406391049 181 141 175
-0.8181376292028281 -0.1885438453833965 -0.0000542833919020 77 77 75
-0.5387356993821121 -0.2054926120550814 0.1466616907432570 27 61 98
-3.4517043773519571 5.4791645739104231 2.4669143599512160 133 116 150
-3.4759300979028760 5.5249021397372466 2.5449281495790839 201 159 197
1.0199489493097831 -0.3640605003652582 2.0360799598969042 143 156 172
-5.6847495841368980 8.3707872797691909 -5.1568427025181709 33 29 18
1.0161786539808262 -0.1077286263851328 1.5024360970831123 10 24 37
-0.7652096723587629 -0.3847076601659336 1.1933832392266561 42 68 103
-0.8551781306120150 -0.3980056238179564 1.1704875748609742 32 50 88
0.4810642204789830 -0.3041007836983338 1.1316519707959229 64 96 109
0.5866899711802177 -0.3239923521104859 1.0558284027286788 62 96 108
-0.8225442478896846 -0.1852739869884676 0.0137323206577949 59 59 61
0.2149430646243889 -0.3664737764085385 1.0374213894427589 42 72 82
0.8586253005054864 -0.1668769980263391 1.3848222744164507 86 114 126
0.1978141442476004 -0.2556915776594800 1.3109728580826903 35 55 62
-0.8697843584253929 -0.3628655041166492 1.2700527937449104 108 136 157
-0.7511863010785389 -0.3931316109014274 1.1688776103897935 120 148 172
0.5676514138135728 -0.3086786212517417 1.1032924988553621 140 171 176
-0.8476428545631115 -0.4400112004779138 1.0764377870564374 39 62 103
-0.4681078209172770 5.8553390956209830 -2.2964510615650826 119 120 176
-0.7810878735152477 -0.4357533264689788 1.0684599770627534 37 59 98
-0.7239134081387771 -0.4665603966063134 0.9776781595770266 97 127 151
-1.1415077822036532 8.0734319532350600 -2.5389726287592049 171 174 183
-1.1771978700636996 8.0071323452410184 -2.7126111455435540 181 194 213
0.2515198236064041 -0.1885744589168164 1.4668454622461533 183 213 241
-5.9131166295314035 12.7677193342632922 -5.6293426438425822 56 55 53
-1.2987699717992904 8.1663532559243723 -2.9175699323554447 201 215 228
-1.2987699717992904 8.1663532559243723 -2.9175699323554447 201 215 228
1.0798008110747783 -0.3580817782368244 0.9071308880507964 162 173 179
-1.3433084786874641 -0.1458612026244315 0.5484064439699137 3 0 0
-1.1200785013809678 8.0025855525329312 -2.0832637479341711 57 45 57
-0.9500985935125221 -0.4491077754671304 1.0712380302530500 71 94 110
-5.9196089124609221 4.8142544272870058 -2.7520045887951747 204 117 133
-1.1031535672954824 7.9574359684276352 -2.3433242621940771 171 197 212
-1.3533757740265908 8.2816974449467420 -2.6225452176641246 174 200 217
-1.4500553866220411 8.3975880709698316 -2.7893685901807292 46 47 68
0.6341353538297471 4.3018578049097878 0.1184860800153963 192 170 131
-1.3309739070484283 8.1518726649538387 -2.7489051814782886 64 55 72
-1.1683227148989890 8.7231843595371998 -3.1998934967594566 42 42 68
-0.6006396686043401 -0.0083934561337052 1.3372699733399873 21 40 73
-1.0602586446423634 7.9049298504037866 -2.9121708924087151 47 45 69
0.1315552219051573 -0.3069701245168924 1.1983362198887018 135 164 168
-1.4865961800705305 8.3880825969713975 -3.3102926823370526 128 129 160
-1.0220408847502873 7.7399690747046366 -3.1194704434525771 52 55 88
-2.2660708486430678 9.5235621336870793 -3.4676785950915487 62 42 79
-1.1401113374731717 7.9394023178743600 -3.0607415373145632 55 52 81
-1.1795330694422212 8.0562785900958556 -2.4876800525067337 69 51 65
-2.0764178253625398 9.1391135510325263 -3.3551236296024589 38 33 73
-1.3038468985815537 8.2511599181235251 -3.1772187502289473 54 51 80
-1.3930623068573385 8.1639741328537934 -3.2475781781798814 52 55 90
-1.4714910260315215 8.5810841905435584 -2.4001011200594635 56 45 61
1.0821331245068539 0.0224081343163658 0.2594820711456198 164 172 174
-1.1508545279154367 8.1778601247955294 -2.4673134913791595 65 76 94
-0.2536655014761954 -0.3245066933070964 1.2323097735985551 119 146 157
-2.2123131616565899 9.4013783649914835 -3.1088504629088058 143 170 191
1.0579928495754776 -0.5337489550992299 1.6060398292669575 24 33 38
0.3408364416508690 -0.2009209327899816 1.4181403992078749 108 34 59
-0.8625086180086912 -0.2323128538111414 0.0057371300695355 217 230 239
0.9587836862998873 -0.1683330659167425 1.3689805388188385 94 111 118
-0.9654259863616015 -0.1394458846003871 1.3539017627141297 51 54 69
-0.2498790981504385 -0.2200524514905671 0.4230553679202985 184 188 191
0.9587836862998873 -0.1683330659167425 1.3689805388188385 94 111 118
0.9549660272921933 -0.1694867681391863 1.3652273672678170 0 6 19
0.6532359936494234 -0.2133584039160791 1.3241368508779181 15 33 53
0.9682469752105340 -0.1925781553806422 1.3083097042488649 0 9 21
0.6450258526610990 -0.2286058616865594 1.2876757897160287 126 154 165
-0.7677235843640866 -0.3452405060332189 1.2903871411929664 42 65 97
-0.7670848444567069 -0.3483573069842472 1.2830257672943615 36 61 92
0.0069107204533082 -0.2876638547498796 1.2695684187601393 0 13 23
-0.0892114376211246 5.2015785892540016 -1.2256566478382922 126 128 141
-0.7473621599761966 -0.3494292429439551 1.2777995984624215 47 69 110
-0.8505386752007488 -0.3580850131771874 1.2762227223023790 51 65 104
-0.8774494069160879 -0.3605321273137339 1.2743172585098104 44 65 94
0.6651235592334092 -0.2596840215734419 1.2041625907489819 0 11 23
-2.3102031136992625 9.3037259053043648 -4.0063120710454534 47 60 79
-5.7516061704868768 12.7288339358986562 -8.4144881518568351 162 208 234
-0.2469852681042218 -0.3842563463834099 1.2299396572590477 138 162 172
-0.6790220988323666 0.0350955655664177 1.3133941680692600 39 47 83
0.5229729993535105 -0.2663869195635449 1.2149927654999648 123 157 167
-0.1969918662697913 -0.3254867515606733 1.2209488661398833 11 25 36
-0.3052685424042885 -0.3335022879500568 1.2182396047456623 48 74 87
-0.6699529790465338 -0.3648943907580025 1.2222144917968014 46 73 103
0.4946217947830933 -0.2742906012997084 1.2048462899687504 0 26 43
1.0779060335620678 -0.4959040582550001 1.1415739614863634 179 189 191
-0.3037225274010770 -0.3390193335006035 1.2106501251485473 49 73 83
-5.9288919641315809 15.1706468804881744 -9.3767679706900786 87 104 160
-0.3844273030429073 -0.2144750546445365 0.3177171224683265 45 61 86
0.3279817566421283 -0.2889181970861884 1.2009783419161222 113 138 145
0.0133905933979926 -0.3138913668101928 1.2046635979118858 0 12 20
-0.4201950629027141 -0.2293549294536404 0.2607430477282848 202 201 199
0.5238688791946762 -0.2750326448821834 1.1968119545606912 155 179 191
0.6674845284406536 -0.2639332724112119 1.1916400257149380 0 14 26
0.6674845284406536 -0.2639332724112119 1.1916400257149380 0 14 26
0.9677579834822947 -0.2399504829497711 1.1867245734508587 0 17 33
-0.2102919212248908 -0.3351454957937514 1.2013623528176915 0 17 34
0.9700199285505861 -0.2416801928096044 1.1832583342484821 88 112 116
-0.0008908715237530 -0.3183135885718156 1.1964579882773376 0 12 27
0.2472511455346962 -0.3003052230805467 1.1923100331560899 37 67 78
-0.8348397221601837 -0.0240663278952214 1.3192265796190634 106 119 128
0.6557350104138228 -0.2669112587171329 1.1867261650806928 121 146 153
-0.7388130951128532 -0.3796043126805575 1.2053355888285011 55 75 112
-0.1875923141062067 -0.3756089267517451 1.0941482834066727 136 156 165
-6.1336469626689736 5.2757709285892602 -1.7235046293617671 255 255 234
-0.3785782111175180 -0.2278971117608042 0.4739998722591522 176 177 172
0.0042261387868852 -0.3248914170444383 1.1793764784046687 128 158 169
0.2872546908318187 -0.1982004794837500 1.4404724821501946 197 221 249
-0.3258198434324195 -0.3469556809319085 1.1803624834681756 124 153 159
0.6666759444273993 -0.2764839047969085 1.1604880919420688 126 148 161
0.0109675365420073 -0.3266952528066484 1.1692115948772963 0 12 25
0.9717589904850265 -0.2533766690118658 1.1550168833138810 102 122 131
-0.8124183541341039 -0.1342710365908107 -0.0378859155602188 133 124 109
0.9717589904850265 -0.2533766690118658 1.1550168833138810 102 122 131
-0.8194231888087541 -0.3956596341030881 1.1758470173901723 152 178 201
-0.8194231888087541 -0.3956596341030881 1.1758470173901723 152 178 201
-0.2067092844922683 -0.3493233126558615 1.1654896442394107 0 18 33
0.5367692508860521 -0.2964406503459048 1.1449745273069776 36 71 90
0.3456434937499339 -0.3101458883058933 1.1446536054104242 0 15 30
-0.7578732017566631 -0.3947962979664074 1.1593476748251152 56 79 113
-0.7503427068370853 -0.3973761316157531 1.1579994660954622 134 159 181
-0.8391951818968774 -0.4039992328691258 1.1575850623728836 10 31 58
0.5305396028274172 -0.2987099130737174 1.1348422984179209 59 86 103
-0.7611930780740229 -0.1153325561227483 1.3636743817095986 47 62 91
-0.3104607683446848 -0.3662174999462330 1.1456280646623949 197 218 237
-0.3104607683446848 -0.3662174999462330 1.1456280646623949 197 218 237
0.3308447247450953 -0.3151618476593746 1.1358739118237373 0 7 19
0.0207524357301807 -0.3421652140877781 1.1321964838425653 0 6 19
-0.1870693304254382 -0.3646099261534895 1.1221238391052006 0 9 23
0.5075659398534885 -0.3115884978926810 1.1101336979946792 148 174 187
0.0070534458785335 -0.3513551191389831 1.1145409806812918 0 5 19
-0.6987701037458732 -0.4111106505053742 1.1217160507723083 45 67 104
-0.1863364403241826 -0.3683586152769570 1.1130399673395750 0 14 26
0.1463539156489065 -0.3421693160348595 1.1056734219997000 38 66 77
0.0206021541302122 -0.3536841670783478 1.1042968726371427 113 153 161
0.1191115214636806 -0.2779992034004365 1.2678613932333407 206 204 225
0.5083212634803431 -0.3149041628102217 1.0965476440251030 61 91 101
-0.2009415836817414 -0.3727853919451216 1.1044745904101512 7 23 39
-0.1854400278166095 -0.3714296434093397 1.1048588781369970 0 2 19
0.5108971414846273 -0.3211534575870724 1.0874464776438011 141 169 180
0.5672740385585763 -0.3152495908808642 1.0865065510077072 42 70 82
0.5672740385585763 -0.3152495908808642 1.0865065510077072 42 70 82
-0.8103648519322600 -0.1135738006274059 1.3577044058203573 47 55 76
0.5189675488906779 -0.3201774955367757 1.0855670221470208 134 163 171
-0.9647346210943097 -0.4386235703791203 1.1027606396436769 0 3 37
0.1734158793481214 -0.3519608591782112 1.0791156869895897 126 159 176
-0.7231523723123858 -0.1295652321537572 1.3763214863857205 51 61 86
0.2339112417548190 -0.3479550763609796 1.0741438837562192 0 5 28
0.1945062021683534 -0.3527134481828167 1.0714045240052477 0 16 32
-0.0737667436767770 -0.3723580967984134 1.0749678527181687 54 83 91
1.0622003982740049 -0.2833334964932245 1.0504612260235402 31 48 56
0.2218502898726206 -0.3569077110743706 1.0549885394815686 62 89 100
-0.6943965846607970 -0.4323787021813941 1.0616206803817805 46 68 107
-0.2214514658637293 5.7352913023033407 -1.1284597177362166 181 200 215
-1.1810302208314909 8.1455619249736468 -2.0753057264079380 116 122 136
0.5837414941440056 -0.3316019426208758 1.0421118055225091 134 162 174
1.0652356852908951 -0.3012025028170184 1.0275327489889776 17 36 43
-0.2785922905682919 -0.4063388955508496 1.0419931317164808 45 73 97
1.1537424233903613 -0.6266435741134615 0.2419036149761961 105 108 115
-0.2785922905682919 -0.4063388955508496 1.0419931317164808 45 73 97
0.5895782636110294 -0.3378120402295678 1.0223172910637950 51 83 96
-0.2784970042379885 -0.4091962084886799 1.0330528081364672 63 91 113
0.9610811215430587 -0.3091750901059604 1.0129336142110836 18 28 30
0.5895664320456239 -0.3418231474238262 1.0157347092224036 42 75 84
0.5895664320456239 -0.3418231474238262 1.0157347092224036 42 75 84
0.2725078807127014 -0.3670375066891646 1.0200052840225629 35 60 67
0.6918026963829771 4.2972788240675408 -0.7798045761250246 195 179 154
0.6909450100203376 4.4532597016285402 -1.2921604207843986 101 123 162
1.0996219754038705 -0.6976361957270976 1.1831781960234322 114 121 139
0.0633327832179333 5.2813922519438803 -1.7115426282204398 64 74 101
0.7642531727636555 3.8795368680295894 -1.1887213137414279 157 139 115
0.0310070802334372 4.3987788051593641 -6.6216157529130948 150 160 170
0.7522897511634153 4.0549157450575448 -1.3502152923464590 195 178 158
0.5518899345854232 4.2898622297212423 -2.1734163977291616 137 152 159
-0.3193696213382544 -0.2392653006634503 0.6529888986703354 39 46 62
0.3072932357581261 4.6117086134696539 -2.3725733684282382 25 48 66
0.5732573811982823 4.2935092330487832 -2.2286982300203229 44 62 82
-0.9415447800824631 -0.3470823768415749 1.3271797495248234 48 65 95
1.0227454227038144 -0.3703002775213511 2.0088399129108461 43 48 68
1.0227454227038144 -0.3703002775213511 2.0088399129108461 43 48 68
-0.1969936545053593 -0.3253871605382966 1.2177134193831840 10 29 36
0.3179437704320079 -0.1954495222235189 1.4360692308828971 175 119 144
0.9531297591814869 -0.1660284473011839 1.3771226329831021 81 100 106
0.9531297591814869 -0.1660284473011839 1.3771226329831021 81 100 106
0.8201921667095448 -0.1754831483584024 1.3753543826718833 93 121 132
0.8730031969891071 -0.1918317164644141 1.3321372336253314 39 65 78
-0.7007890718380787 -0.3215737245148407 1.3413161349036724 52 67 96
-0.0003560318927456 5.4867519315703666 -1.3027165750011740 53 54 74
-5.5032269256850057 5.5330501596909247 -2.3259060048314377 39 38 34
-0.7007890718380787 -0.3215737245148407 1.3413161349036724 52 67 96
1.0318983873138281 0.5863131227451305 0.0344260713194782 180 190 199
-0.8596578795746564 -0.3406750690208882 1.3315312342931549 115 141 154
0.7979471439483433 3.6800852677409210 -1.4242186991690096 195 182 150
-0.8596578795746564 -0.3406750690208882 1.3315312342931549 115 141 154
0.6587858902508319 -0.2178150752565148 1.3068795022596431 113 143 154
-0.7933381800595960 -0.4011653324789616 1.1607619041352721 34 48 93
-0.8640577804503167 -0.3602693105213272 1.2741149498978703 36 57 88
0.3344825133771442 -0.2679722235409200 1.2529779375003041 13 23 32
-0.7215654453386298 -0.3528102114322818 1.2632010669902274 42 65 97
-0.7610345613867382 -0.3608400389126755 1.2569986557092518 59 79 114
1.0806975736964466 -0.5361296370136367 1.1575804929867690 166 175 182
-0.9714783504061935 -0.3939972509281132 1.2186048155623188 38 53 84
-0.7441859634187210 -0.3627343581520553 1.2442371924739442 52 75 106
0.2925899535036544 -0.1933671247864784 1.4472236739089306 121 112 139
-0.2639768744438633 -0.3268400628194335 1.2322216442902665 16 43 60
-0.8188766909072336 -0.1279813307322476 1.3612967844878006 69 77 98
0.3409603458936206 -0.2797060864912672 1.2225690651087278 115 147 158
-0.8213804534662615 -0.1948429902133213 0.0000877427496675 34 36 33
-0.7476864987827895 -0.3686709423370922 1.2292839600670256 117 145 166
-0.7476864987827895 -0.3686709423370922 1.2292839600670256 117 145 166
0.0077308972051792 -0.6089596864635586 0.1360708014305015 111 112 78
-0.7687762639956429 -0.3727775008380805 1.2221360656988005 51 73 110
-0.9831252723518856 -0.3631781928725558 1.2911004510825437 34 49 80
-0.7687762639956429 -0.3727775008380805 1.2221360656988005 51 73 110
-0.7053091730984203 -0.3698910108325699 1.2180471856140689 133 155 176
0.9694135913958642 -0.2389174948708690 1.1921014043361482 83 104 107
-0.7416008595312052 -0.3737628812615524 1.2140514495610273 65 85 120
-0.6656144861413764 -0.3700251480159168 1.2159727368634436 63 81 117
-0.6667785388187003 -0.3730679508290751 1.2083182921268298 60 76 110
-0.9652134649679300 -0.3540070489157477 1.3094595707318861 29 39 75
0.8324305705844054 0.0645050532582085 0.8411167603099293 0 20 65
-0.6395576644453170 -0.3756036019040070 1.1929905272979353 60 85 116
1.0757848023733676 -0.4675933400642592 1.1293238676729234 149 166 174
0.6582383300636687 -0.2737723533648665 1.1688197089574297 117 144 151
1.0534262180993523 -0.2367981945801565 1.1627295119345402 15 25 35
1.0385894729668683 -0.2064481943830535 1.2683270092795278 15 24 39
0.3349637913204703 -0.3037259619161428 1.1633134427204108 0 12 26
-0.9410020051197685 -0.3537555706010505 1.3103970957682540 40 49 88
-0.7370228350181520 -0.3906738056035320 1.1752441881758893 56 76 111
0.3329240035053870 -0.3060185629617762 1.1577976587981478 110 142 155
0.3297930284968051 -0.3072982908492828 1.1524705888200262 2 18 31
0.2484757055264699 -0.3201654981583553 1.1453532049540514 121 150 164
-0.8639888012726419 -0.4089775589961488 1.1553761923419619 35 56 87
-0.7005234140905371 -0.3994196823964027 1.1458054635344375 58 75 118
-0.3195359333099327 -0.3665589067294434 1.1450541352127013 185 210 230
0.0089788832704223 -0.3419672137012205 1.1362672119206894 121 155 165
0.3519645811732820 -0.3250757813675977 1.1112921642115010 122 156 165
